ply
format ascii 1.0
comment Created by Open3D
element vertex 1571
property double x
property double y
property double z
element face 0
property list uchar uint vertex_indices
end_header
0.0275826 0.0766837 0.0933233
0.0281966 0.0766402 0.0932875
0.0287465 0.0766074 0.093353
0.0293604 0.0765638 0.0933171
0.0299104 0.076531 0.0933825
0.0304603 0.0764981 0.093448
0.0310743 0.0764546 0.0934122
0.0316243 0.0764216 0.0934776
0.0323022 0.0763675 0.0933406
0.0329276 0.0763194 0.0932865
0.0340275 0.0761858 0.0924812
0.0346529 0.0761377 0.0924271
0.0352784 0.0760895 0.092373
0.0359038 0.0760414 0.092319
0.0364614 0.0760054 0.0923722
0.0370868 0.0759572 0.0923181
0.0377122 0.0759091 0.092264
0.0382698 0.075873 0.0923173
0.0388274 0.0758371 0.0923705
0.0394528 0.075789 0.0923165
0.0400105 0.0757529 0.0923697
0.0406358 0.0757048 0.0923157
0.0412612 0.0756566 0.0922616
0.0419544 0.0755963 0.0921002
0.0426476 0.0755359 0.0919388
0.0435443 0.075439 0.0914554
0.0443053 0.0753665 0.0911867
0.0449307 0.0753183 0.0911326
0.0454882 0.0752823 0.0911859
0.0461137 0.0752341 0.0911318
0.0468069 0.0751738 0.0909704
0.0475001 0.0751134 0.090809
0.0482611 0.0750409 0.0905403
0.0489543 0.0749805 0.0903788
0.0499187 0.0748714 0.0897882
0.0508153 0.0747745 0.0893048
0.0515763 0.0747019 0.0890361
0.0524729 0.0746049 0.0885527
0.0532339 0.0745324 0.0882839
0.0539949 0.0744599 0.0880153
0.0548915 0.074363 0.0875319
0.0559237 0.0742416 0.0868338
0.0568203 0.0741446 0.0863504
0.0576491 0.0740599 0.0859744
0.0584779 0.0739752 0.0855984
0.0593067 0.0738904 0.0852223
0.0607456 0.0736959 0.0838803
0.0618456 0.0735624 0.083075
0.0627423 0.0734654 0.0825916
0.0641134 0.0732832 0.081357
0.0655524 0.0730887 0.0800149
0.0669236 0.0729064 0.0787803
0.0679558 0.072785 0.0780823
0.0685812 0.0727369 0.0780282
0.0695456 0.0726277 0.0774375
0.0704201 0.0727278 0.079797
0.0716183 0.0727052 0.080708
0.0719725 0.0727058 0.0810833
0.0726657 0.0726454 0.0809219
0.0728843 0.0726705 0.0815117
-0.039894 0.0762699 0.00689689
-0.0408959 0.0765135 0.00941886
-0.0437286 0.0770852 0.0148389
-0.043849 0.0771709 0.0159655
-0.043766 0.0772201 0.01677
-0.0440221 0.07733 0.0181113
-0.0437356 0.0773428 0.0185939
-0.0448054 0.0775986 0.0212232
-0.0449258 0.0776842 0.0223498
-0.0449106 0.0777455 0.0232617
-0.0447598 0.0777826 0.023959
-0.0448802 0.0778682 0.0250855
-0.0448651 0.0779295 0.0259974
-0.0448499 0.0779908 0.0269093
-0.0446991 0.0780279 0.0276066
-0.0446161 0.0780771 0.0284112
-0.0444653 0.0781141 0.0291084
-0.0443146 0.0781512 0.0298057
-0.0441638 0.0781882 0.0305029
-0.0440129 0.0782252 0.0312001
-0.0437944 0.0782501 0.0317901
-0.0435758 0.078275 0.03238
-0.0433572 0.0782998 0.0329699
-0.0430708 0.0783126 0.0334524
-0.0427844 0.0783253 0.033935
-0.042498 0.0783381 0.0344176
-0.0421438 0.0783386 0.0347929
-0.0419252 0.0783634 0.0353827
-0.0416388 0.0783762 0.0358653
-0.0413524 0.0783889 0.0363479
-0.041066 0.0784016 0.0368305
-0.0407796 0.0784143 0.0373131
-0.0404254 0.0784149 0.0376883
-0.040139 0.0784277 0.0381709
-0.0398526 0.0784404 0.0386534
-0.0395662 0.0784531 0.039136
-0.0392797 0.0784658 0.0396185
-0.0389256 0.0784664 0.0399939
-0.0385714 0.0784669 0.0403691
-0.038285 0.0784797 0.0408516
-0.0379308 0.0784803 0.0412269
-0.0375765 0.0784808 0.0416021
-0.0372223 0.0784814 0.0419773
-0.0369359 0.0784941 0.0424599
-0.0365817 0.0784947 0.0428351
-0.0362275 0.0784953 0.0432104
-0.0359411 0.078508 0.0436929
-0.0355869 0.0785086 0.0440682
-0.0351649 0.078497 0.0443361
-0.0348107 0.0784976 0.0447114
-0.0343887 0.078486 0.0449793
-0.0339667 0.0784744 0.0452472
-0.0336125 0.078475 0.0456224
-0.0331227 0.0784513 0.045783
-0.0327007 0.0784397 0.0460509
-0.032143 0.0784037 0.046104
-0.031721 0.0783922 0.0463719
-0.031299 0.0783806 0.0466398
-0.0308769 0.078369 0.0469078
-0.0305228 0.0783696 0.0472831
-0.0301686 0.0783702 0.0476583
-0.0298144 0.0783708 0.0480335
-0.0294602 0.0783713 0.0484088
-0.0291059 0.0783719 0.048784
-0.0287517 0.0783725 0.0491592
-0.0283975 0.078373 0.0495345
-0.0279077 0.0783493 0.049695
-0.0274179 0.0783256 0.0498556
-0.0269281 0.0783018 0.0500162
-0.0264383 0.0782782 0.0501767
-0.0258807 0.0782422 0.05023
-0.025323 0.0782064 0.0502832
-0.0246976 0.0781583 0.0502291
-0.0242078 0.0781346 0.0503896
-0.0237858 0.078123 0.0506575
-0.0234315 0.0781235 0.0510328
-0.0230773 0.0781241 0.051408
-0.0227909 0.0781369 0.0518906
-0.0224367 0.0781374 0.0522658
-0.0220826 0.078138 0.0526411
-0.0217283 0.0781386 0.0530163
-0.0213063 0.078127 0.0532843
-0.0209521 0.0781276 0.0536595
-0.0205301 0.078116 0.0539274
-0.0200403 0.0780923 0.054088
-0.0195505 0.0780685 0.0542485
-0.0190606 0.0780447 0.054409
-0.0185708 0.0780211 0.0545696
-0.018081 0.0779973 0.0547302
-0.0175912 0.0779736 0.0548907
-0.0171014 0.0779498 0.0550513
-0.0166115 0.0779261 0.0552119
-0.0161217 0.0779024 0.0553725
-0.0156319 0.0778786 0.055533
-0.0151421 0.077855 0.0556936
-0.0147201 0.0778434 0.0559615
-0.0142303 0.0778196 0.0561221
-0.0137405 0.0777959 0.0562827
-0.0132507 0.0777721 0.0564432
-0.0127608 0.0777484 0.0566038
-0.012271 0.0777247 0.0567643
-0.0117812 0.0777009 0.0569249
-0.0113592 0.0776893 0.0571928
-0.0108015 0.0776535 0.057246
-0.0103795 0.0776419 0.0575139
-0.0101609 0.0776668 0.0581038
-0.00994236 0.0776916 0.0586938
-0.0104696 0.0778502 0.0604644
-0.0105901 0.0779358 0.061591
-0.0105071 0.077985 0.0623955
-0.0104919 0.0780463 0.0633075
-0.0105445 0.0781198 0.0643267
-0.0104615 0.078169 0.0651312
-0.0114098 0.0783904 0.0675677
-0.0112436 0.0784211 0.0682405
-0.0116533 0.0785468 0.0698245
-0.0116791 0.0786092 0.070801
-0.011513 0.0786399 0.0714739
-0.0113469 0.0786705 0.0721467
-0.0110528 0.0786801 0.072617
-0.0108867 0.0787108 0.0732898
-0.0106566 0.0787308 0.0738614
-0.0104265 0.078751 0.074433
-0.0100685 0.07875 0.0748021
-0.00977441 0.0787595 0.0752725
-0.00941633 0.0787585 0.0756416
-0.00912229 0.0787681 0.076112
-0.00876426 0.078767 0.0764812
-0.00840623 0.078766 0.0768503
-0.00804815 0.078765 0.0772194
-0.00769012 0.078764 0.0775885
-0.00726811 0.0787524 0.0778564
-0.00691009 0.0787513 0.0782256
-0.00655206 0.0787503 0.0785947
-0.00613005 0.0787388 0.0788626
-0.00570803 0.0787272 0.0791305
-0.00535001 0.0787262 0.0794997
-0.00499192 0.0787252 0.0798687
-0.0046339 0.0787242 0.0802379
-0.00433985 0.0787337 0.0807083
-0.00398183 0.0787327 0.0810774
-0.00362374 0.0787317 0.0814465
-0.0033297 0.0787412 0.0819169
-0.00297167 0.0787402 0.0822861
-0.00254966 0.0787286 0.082554
-0.00219163 0.0787276 0.0829231
-0.00170564 0.0787054 0.0830898
-0.00128363 0.0786938 0.0833577
-0.000861613 0.0786823 0.0836256
-0.000375618 0.0786601 0.0837922
4.63944e-05 0.0786485 0.0840601
0.000468406 0.0786369 0.084328
0.000762451 0.0786465 0.0847984
0.00112053 0.0786455 0.0851675
0.00147856 0.0786444 0.0855366
0.00183659 0.0786434 0.0859058
0.0022586 0.0786319 0.0861737
0.00261663 0.0786309 0.0865428
0.00303864 0.0786193 0.0868107
0.00346065 0.0786077 0.0870786
0.00388266 0.0785961 0.0873465
0.00430467 0.0785845 0.0876145
0.00479067 0.0785624 0.0877811
0.00527667 0.0785402 0.0879478
0.00576266 0.0785181 0.0881144
0.00624861 0.078496 0.0882812
0.0067346 0.0784738 0.0884478
0.00734857 0.0784306 0.088412
0.00796248 0.0783872 0.0883762
0.00851246 0.0783546 0.0884416
0.00912637 0.0783113 0.0884059
0.00974028 0.078268 0.0883701
0.0102263 0.0782459 0.0885368
0.0106483 0.0782343 0.0888047
0.0110703 0.0782227 0.0890726
0.0114923 0.0782111 0.0893405
0.0119143 0.0781995 0.0896084
0.0123363 0.078188 0.0898763
0.0127583 0.0781764 0.0901442
0.0131804 0.0781648 0.0904121
0.0136024 0.0781532 0.09068
0.0140884 0.0781312 0.0908466
0.0145744 0.078109 0.0910133
0.0150604 0.0780868 0.09118
0.0156103 0.0780541 0.0912454
0.0161603 0.0780214 0.0913109
0.0167742 0.0779781 0.0912751
0.0172602 0.077956 0.0914418
0.0176822 0.0779444 0.0917097
0.0181682 0.0779223 0.0918763
0.0185902 0.0779107 0.0921442
0.0190122 0.0778991 0.0924121
0.0194982 0.0778769 0.0925788
0.0199841 0.0778548 0.0927455
0.0204701 0.0778326 0.0929122
0.0209561 0.0778106 0.0930788
0.0215061 0.0777778 0.0931442
0.0219921 0.0777556 0.093311
0.022542 0.077723 0.0933764
0.023092 0.0776902 0.0934419
0.023578 0.0776681 0.0936085
0.0241919 0.0776248 0.0935727
0.0247419 0.0775921 0.0936382
0.0253558 0.0775489 0.0936023
0.0260977 0.0774844 0.0933641
0.0266476 0.0774517 0.0934296
0.0272616 0.0774085 0.0933937
0.0278755 0.0773652 0.093358
0.0284255 0.0773325 0.0934234
0.0290394 0.0772892 0.0933876
0.0295894 0.0772565 0.093453
0.0301393 0.0772238 0.0935185
0.0306893 0.0771911 0.0935839
0.0313032 0.0771479 0.0935482
0.0319171 0.0771045 0.0935124
0.0325311 0.0770613 0.0934766
0.0332243 0.0770011 0.0933152
0.0341888 0.0768923 0.0927244
0.0348142 0.0768443 0.0926703
0.0355074 0.0767841 0.0925089
0.0360651 0.0767482 0.092562
0.0366905 0.0767001 0.092508
0.0373159 0.0766521 0.0924539
0.0378735 0.0766162 0.0925071
0.038499 0.0765682 0.0924529
0.0390566 0.0765323 0.0925062
0.039682 0.0764842 0.0924521
0.0402396 0.0764484 0.0925054
0.0409329 0.0763882 0.0923439
0.0415583 0.0763401 0.0922898
0.0422515 0.07628 0.0921284
0.0429447 0.0762198 0.091967
0.0437736 0.0761352 0.0915908
0.0445347 0.0760629 0.091322
0.0451601 0.0760148 0.0912679
0.0457855 0.0759668 0.0912138
0.0464787 0.0759066 0.0910524
0.0471042 0.0758586 0.0909982
0.0478652 0.0757862 0.0907295
0.048694 0.0757017 0.0903534
0.0494551 0.0756294 0.0900846
0.0502161 0.0755571 0.0898159
0.0511128 0.0754604 0.0893324
0.0519416 0.0753759 0.0889563
0.0528383 0.0752792 0.0884728
0.0535993 0.075207 0.0882041
0.0543604 0.0751346 0.0879353
0.055257 0.0750379 0.0874519
0.0564927 0.0748805 0.0864317
0.0572537 0.0748081 0.0861629
0.0580826 0.0747237 0.0857868
0.0589792 0.074627 0.0853034
0.0600793 0.0744939 0.0844979
0.0610437 0.0743851 0.0839072
0.0622794 0.0742277 0.082887
0.0632439 0.0741189 0.0822962
0.0646152 0.0739372 0.0810614
0.0661221 0.0737311 0.0796119
0.0679002 0.0734765 0.0777332
-0.036491 0.0763446 0.00107295
-0.0439202 0.077799 0.0147049
-0.0440407 0.0778843 0.0158316
-0.0439577 0.0779332 0.0166363
-0.044146 0.0780307 0.0178702
-0.0454193 0.0783219 0.0208218
-0.045472 0.0783951 0.0218411
-0.0453212 0.0784319 0.0225384
-0.0452383 0.0784809 0.0233431
-0.0452232 0.078542 0.024255
-0.0452758 0.0786152 0.0252743
-0.0451929 0.0786641 0.026079
-0.0451778 0.0787252 0.026991
-0.0449592 0.07875 0.0275809
-0.0448762 0.078799 0.0283855
-0.0447933 0.0788479 0.0291901
-0.0446425 0.0788849 0.0298874
-0.044424 0.0789095 0.0304774
-0.044341 0.0789585 0.031282
-0.0441224 0.0789833 0.0318719
-0.0439039 0.0790081 0.0324619
-0.0436853 0.0790328 0.0330519
-0.0433989 0.0790455 0.0335344
-0.0431125 0.0790581 0.034017
-0.0428261 0.0790708 0.0344996
-0.0425397 0.0790833 0.0349822
-0.0422534 0.079096 0.0354648
-0.041967 0.0791087 0.0359474
-0.0416806 0.0791213 0.03643
-0.0413942 0.079134 0.0369126
-0.0411079 0.0791466 0.0373952
-0.0407536 0.0791471 0.0377704
-0.0404672 0.0791597 0.038253
-0.0401808 0.0791724 0.0387356
-0.0398945 0.0791851 0.0392182
-0.0395403 0.0791856 0.0395935
-0.0392539 0.0791983 0.040076
-0.0388997 0.0791988 0.0404513
-0.0385455 0.0791993 0.0408266
-0.0381913 0.0791999 0.0412018
-0.0378371 0.0792003 0.041577
-0.0374829 0.0792008 0.0419523
-0.0371287 0.0792014 0.0423276
-0.0368423 0.079214 0.0428101
-0.0364881 0.0792146 0.0431854
-0.0362017 0.0792272 0.043668
-0.0358475 0.0792277 0.0440432
-0.0354933 0.0792283 0.0444185
-0.0351391 0.0792288 0.0447937
-0.0347171 0.0792172 0.0450616
-0.0342951 0.0792056 0.0453295
-0.0339409 0.0792061 0.0457048
-0.0335189 0.0791946 0.0459727
-0.0330969 0.079183 0.0462406
-0.0326749 0.0791714 0.0465085
-0.0321172 0.0791357 0.0465617
-0.0316274 0.0791119 0.0467223
-0.0312054 0.0791003 0.0469902
-0.0307834 0.0790887 0.0472581
-0.0304292 0.0790893 0.0476333
-0.030075 0.0790898 0.0480085
-0.0297208 0.0790903 0.0483838
-0.0294344 0.079103 0.0488664
-0.0290124 0.0790914 0.0491343
-0.0286582 0.0790919 0.0495095
-0.0282362 0.0790804 0.0497774
-0.0278142 0.0790688 0.0500453
-0.0273243 0.0790451 0.0502059
-0.0267667 0.0790093 0.0502592
-0.0262769 0.0789856 0.0504196
-0.0257192 0.0789498 0.0504729
-0.0251616 0.078914 0.0505261
-0.0245362 0.0788661 0.050472
-0.0239785 0.0788303 0.0505251
-0.0235565 0.0788187 0.050793
-0.0232701 0.0788314 0.0512757
-0.0229159 0.0788319 0.0516509
-0.0226295 0.0788445 0.0521335
-0.0222753 0.078845 0.0525088
-0.0219211 0.0788455 0.052884
-0.0214991 0.078834 0.0531519
-0.0211449 0.0788346 0.0535272
-0.0207229 0.078823 0.0537951
-0.0203009 0.0788114 0.054063
-0.0198789 0.0787998 0.0543309
-0.0193891 0.0787761 0.0544914
-0.0188992 0.0787524 0.054652
-0.0184094 0.0787287 0.0548125
-0.0178518 0.0786929 0.0548657
-0.0173619 0.0786692 0.0550263
-0.0168721 0.0786456 0.0551869
-0.0163823 0.0786218 0.0553474
-0.0158246 0.0785861 0.0554006
-0.0154026 0.0785745 0.0556685
-0.0149128 0.0785507 0.0558291
-0.014423 0.0785271 0.0559897
-0.0139331 0.0785034 0.0561502
-0.0134433 0.0784796 0.0563107
-0.0129535 0.078456 0.0564713
-0.0124637 0.0784323 0.0566319
-0.0120417 0.0784207 0.0568998
-0.0116197 0.0784092 0.0571677
-0.011062 0.0783733 0.0572209
-0.01064 0.0783617 0.0574888
-0.0104214 0.0783865 0.0580787
-0.0102029 0.0784113 0.0586687
-0.0103233 0.0784966 0.0597953
-0.0107151 0.0786303 0.0613514
-0.0107678 0.0787035 0.0623707
-0.0107526 0.0787646 0.0632827
-0.0106697 0.0788136 0.0640873
-0.010858 0.078911 0.0653213
-0.0116029 0.0790946 0.0674357
-0.0115007 0.0791354 0.0682098
-0.0119743 0.0792706 0.0698948
-0.0120001 0.0793324 0.0708713
-0.011834 0.0793627 0.0715441
-0.0116678 0.079393 0.0722169
-0.0114377 0.0794129 0.0727885
-0.0112077 0.0794328 0.0733601
-0.0110416 0.0794631 0.0740329
-0.0107475 0.0794725 0.0745032
-0.0103894 0.0794714 0.0748724
-0.0100954 0.0794808 0.0753427
-0.00980132 0.0794902 0.0758131
-0.00944329 0.0794891 0.0761822
-0.00908521 0.079488 0.0765513
-0.00872719 0.0794869 0.0769205
-0.0084331 0.0794962 0.0773908
-0.00807507 0.0794951 0.0777599
-0.00765306 0.0794835 0.0780278
-0.00729503 0.0794824 0.078397
-0.00687302 0.0794709 0.0786649
-0.00638702 0.0794488 0.0788315
-0.00596501 0.0794372 0.0790994
-0.005543 0.0794256 0.0793673
-0.00512099 0.079414 0.0796352
-0.00482695 0.0794234 0.0801056
-0.00446887 0.0794223 0.0804747
-0.00417483 0.0794317 0.0809451
-0.00388074 0.0794411 0.0814154
-0.00352271 0.07944 0.0817846
-0.00316469 0.0794389 0.0821537
-0.00280666 0.0794378 0.0825229
-0.00238465 0.0794263 0.0827908
-0.00202657 0.0794252 0.0831598
-0.00154062 0.0794031 0.0833266
-0.00111861 0.0793915 0.0835945
-0.000632613 0.0793694 0.0837611
-0.000146615 0.0793474 0.0839278
0.000275397 0.0793358 0.0841957
0.000697409 0.0793242 0.0844636
0.00105543 0.0793231 0.0848327
0.00141346 0.079322 0.0852019
0.00177154 0.0793209 0.085571
0.00219355 0.0793093 0.0858389
0.00255158 0.0793083 0.086208
0.00297359 0.0792967 0.0864759
0.0033956 0.0792851 0.0867438
0.00375363 0.079284 0.087113
0.00423962 0.0792619 0.0872796
0.00466164 0.0792503 0.0875475
0.00514764 0.0792283 0.0877142
0.00563358 0.0792062 0.0878809
0.00611958 0.0791842 0.0880476
0.00660558 0.0791621 0.0882142
0.00709157 0.07914 0.0883809
0.00770549 0.079097 0.0883451
0.00825542 0.0790644 0.0884106
0.00880541 0.0790319 0.088476
0.00941933 0.078989 0.0884403
0.00996926 0.0789564 0.0885058
0.0105192 0.0789239 0.0885712
0.0109413 0.0789123 0.0888391
0.0114273 0.0788902 0.0890057
0.0117853 0.0788891 0.0893749
0.0122713 0.078867 0.0895415
0.0126933 0.0788555 0.0898094
0.0131153 0.0788439 0.0900773
0.0135373 0.0788323 0.0903452
0.0139593 0.0788207 0.0906131
0.0144453 0.0787987 0.0907799
0.0149313 0.0787766 0.0909465
0.0154173 0.0787545 0.0911132
0.0159033 0.0787325 0.0912798
0.0165172 0.0786894 0.0912441
0.0170032 0.0786674 0.0914107
0.0175531 0.0786348 0.0914762
0.0179751 0.0786232 0.0917441
0.0184611 0.0786012 0.0919108
0.0188831 0.0785896 0.0921787
0.0193051 0.078578 0.0924466
0.0197272 0.0785664 0.0927145
0.0202771 0.0785339 0.09278
0.0207631 0.0785118 0.0929467
0.0212491 0.0784897 0.0931133
0.021735 0.0784677 0.09328
0.022285 0.0784351 0.0933455
0.022835 0.0784026 0.0934109
0.0233209 0.0783805 0.0935776
0.0238709 0.0783481 0.093643
0.0244849 0.078305 0.0936073
0.0250348 0.0782725 0.0936727
0.0257767 0.0782085 0.0934345
0.0263906 0.0781654 0.0933987
0.0269406 0.0781329 0.0934641
0.0274905 0.0781003 0.0935296
0.0281044 0.0780573 0.0934939
0.0287183 0.0780143 0.0934581
0.0292683 0.0779817 0.0935235
0.0298822 0.0779388 0.0934878
0.0304322 0.0779062 0.0935532
0.0309822 0.0778737 0.0936187
0.0315961 0.0778307 0.0935829
0.0321461 0.0777981 0.0936483
0.0328956 0.0777308 0.0933979
0.0335211 0.0776829 0.0933438
0.0344177 0.0775865 0.0928603
0.035111 0.0775265 0.0926988
0.0356687 0.0774907 0.0927519
0.036362 0.0774307 0.0925904
0.0369874 0.0773828 0.0925364
0.0376128 0.0773349 0.0924822
0.0381705 0.0772991 0.0925354
0.0387281 0.0772633 0.0925886
0.0393536 0.0772154 0.0925345
0.0399112 0.0771795 0.0925878
0.0405366 0.0771316 0.0925336
0.0411621 0.0770838 0.0924794
0.0418554 0.0770237 0.0923179
0.0425486 0.0769637 0.0921565
0.0432419 0.0769037 0.091995
0.044003 0.0768315 0.0917262
0.044764 0.0767594 0.0914574
0.0454573 0.0766993 0.0912959
0.0460828 0.0766514 0.0912417
0.0468439 0.0765793 0.0909729
0.0475371 0.0765193 0.0908114
0.048366 0.0764351 0.0904352
0.0490593 0.0763749 0.0902737
0.0498882 0.0762908 0.0898976
0.0506492 0.0762186 0.0896288
0.0514103 0.0761464 0.0893599
0.0524427 0.0760259 0.0886617
0.0532037 0.0759537 0.0883929
0.053897 0.0758937 0.0882314
0.0549293 0.0757731 0.0875333
0.055826 0.0756768 0.0870497
0.0569262 0.0755441 0.0862441
0.057755 0.0754599 0.085868
0.0586518 0.0753635 0.0853844
0.0594129 0.0752913 0.0851156
0.060513 0.0751587 0.08431
0.0615453 0.0750381 0.0836119
0.0626455 0.0749054 0.0828063
0.0638134 0.0747606 0.0818934
0.0651848 0.0745794 0.0806584
-0.0444659 0.0785122 0.0141957
-0.0441117 0.0785127 0.014571
-0.043961 0.0785493 0.0152683
-0.0440137 0.0786222 0.0162877
-0.0458298 0.079009 0.0200984
-0.0458825 0.0790818 0.0211177
-0.0460031 0.0791669 0.0222445
-0.0459202 0.0792156 0.0230491
-0.0458373 0.0792644 0.0238539
-0.0457544 0.0793132 0.0246586
-0.0457393 0.079374 0.0255706
-0.0455207 0.0793986 0.0261606
-0.0454378 0.0794474 0.0269652
-0.0452871 0.0794841 0.0276626
-0.0452042 0.0795329 0.0284672
-0.0450535 0.0795695 0.0291646
-0.0449705 0.0796184 0.0299692
-0.044752 0.0796429 0.0305592
-0.0446012 0.0796797 0.0312565
-0.0443827 0.0797043 0.0318465
-0.0441641 0.0797289 0.0324365
-0.0439456 0.0797535 0.0330264
-0.0436592 0.0797661 0.0335091
-0.0434407 0.0797908 0.034099
-0.0431543 0.0798033 0.0345817
-0.0428679 0.0798158 0.0350643
-0.0426494 0.0798405 0.0356542
-0.042363 0.0798531 0.0361369
-0.0420767 0.0798656 0.0366195
-0.0417903 0.0798781 0.0371021
-0.0415039 0.0798907 0.0375847
-0.0412175 0.0799033 0.0380673
-0.0408634 0.0799038 0.0384426
-0.040577 0.0799163 0.0389251
-0.0402906 0.0799289 0.0394078
-0.0399365 0.0799294 0.0397831
-0.0395822 0.0799299 0.0401583
-0.039228 0.0799304 0.0405336
-0.0388738 0.0799309 0.0409088
-0.0384518 0.0799193 0.0411767
-0.0380977 0.0799198 0.041552
-0.0377435 0.0799203 0.0419273
-0.0373892 0.0799208 0.0423025
-0.0370351 0.0799213 0.0426778
-0.0367487 0.0799338 0.0431604
-0.0363945 0.0799343 0.0435357
-0.0361081 0.0799468 0.0440182
-0.035754 0.0799473 0.0443935
-0.0353998 0.0799478 0.0447688
-0.0350456 0.0799483 0.045144
-0.0346914 0.0799488 0.0455193
-0.0343372 0.0799492 0.0458946
-0.033983 0.0799497 0.0462699
-0.0334932 0.0799261 0.0464304
-0.033139 0.0799266 0.0468057
-0.0326491 0.0799029 0.0469662
-0.0320915 0.0798673 0.0470193
-0.0316017 0.0798436 0.0471799
-0.0311118 0.07982 0.0473405
-0.0307576 0.0798205 0.0477157
-0.0303356 0.0798089 0.0479836
-0.0299814 0.0798094 0.0483588
-0.0296273 0.0798099 0.0487342
-0.029273 0.0798103 0.0491094
-0.0289189 0.0798108 0.0494847
-0.0284969 0.0797992 0.0497526
-0.0280749 0.0797876 0.0500205
-0.0276529 0.079776 0.0502884
-0.0270952 0.0797404 0.0503416
-0.0266732 0.0797288 0.0506095
-0.0260477 0.079681 0.0505553
-0.02549 0.0796452 0.0506085
-0.0249323 0.0796095 0.0506616
-0.0243069 0.0795618 0.0506075
-0.0237493 0.079526 0.0506607
-0.0233272 0.0795145 0.0509286
-0.0230408 0.079527 0.0514112
-0.0226867 0.0795275 0.0517865
-0.0223325 0.0795279 0.0521617
-0.0220461 0.0795405 0.0526444
-0.0216919 0.079541 0.0530196
-0.0213377 0.0795415 0.0533948
-0.0209157 0.0795299 0.0536627
-0.0204937 0.0795184 0.0539306
-0.0200717 0.0795068 0.0541985
-0.0195819 0.0794831 0.0543591
-0.0191598 0.0794715 0.054627
-0.01867 0.0794479 0.0547876
-0.0181802 0.0794242 0.0549481
-0.0176225 0.0793886 0.0550013
-0.0172005 0.079377 0.0552692
-0.0167107 0.0793533 0.0554297
-0.0162208 0.0793297 0.0555903
-0.0156632 0.0792939 0.0556434
-0.0151734 0.0792703 0.055804
-0.0146835 0.0792466 0.0559646
-0.0141937 0.0792229 0.0561252
-0.0137039 0.0791993 0.0562857
-0.013214 0.0791756 0.0564462
-0.0126564 0.07914 0.0564994
-0.0123022 0.0791404 0.0568746
-0.0118801 0.0791288 0.0571425
-0.0113225 0.0790932 0.0571958
-0.0109005 0.0790816 0.0574637
-0.010682 0.0791061 0.0580536
-0.0104634 0.0791308 0.0586436
-0.0105161 0.0792037 0.059663
-0.0107724 0.0793128 0.0610045
-0.0110286 0.0794219 0.062346
-0.0110134 0.0794828 0.0632579
-0.0107949 0.0795074 0.0638479
-0.0117062 0.0797272 0.0662261
-0.011796 0.0797988 0.0673038
-0.0116938 0.0798393 0.0680778
-0.0122953 0.079994 0.0699652
-0.0122572 0.0800449 0.0708405
-0.012091 0.0800748 0.0715132
-0.0119889 0.0801153 0.0722872
-0.0117588 0.0801348 0.0728588
-0.0115287 0.0801545 0.0734304
-0.0112986 0.0801741 0.0740019
-0.0110045 0.0801833 0.0744722
-0.0107105 0.0801926 0.0749426
-0.0104164 0.0802017 0.0754129
-0.0101223 0.0802109 0.0758832
-0.00976425 0.0802097 0.0762524
-0.00940617 0.0802086 0.0766215
-0.00911214 0.0802178 0.0770919
-0.00881805 0.080227 0.0775622
-0.00846003 0.0802258 0.0779313
-0.00803802 0.0802142 0.0781992
-0.007616 0.0802027 0.0784671
-0.00719399 0.0801911 0.078735
-0.00670799 0.0801691 0.0789017
-0.00622204 0.0801472 0.0790684
-0.00580003 0.0801356 0.0793363
-0.00537802 0.080124 0.0796042
-0.00501994 0.0801228 0.0799733
-0.00466192 0.0801216 0.0803424
-0.00436783 0.0801309 0.0808128
-0.00400981 0.0801297 0.0811819
-0.00371572 0.0801389 0.0816522
-0.0033577 0.0801377 0.0820214
-0.00299967 0.0801365 0.0823905
-0.0026416 0.0801353 0.0827596
-0.00221959 0.0801237 0.0830275
-0.00179757 0.0801121 0.0832954
-0.00137556 0.0801005 0.0835633
-0.000889615 0.0800786 0.08373
-0.000403614 0.0800566 0.0838967
8.23873e-05 0.0800347 0.0840633
0.000504399 0.0800231 0.0843312
0.000926411 0.0800115 0.0845991
0.00128443 0.0800103 0.0849683
0.00170645 0.0799987 0.0852362
0.00212846 0.0799871 0.0855041
0.00248648 0.0799859 0.0858733
0.00284456 0.0799847 0.0862423
0.00333051 0.0799628 0.0864091
0.00368858 0.0799616 0.0867781
0.00417453 0.0799396 0.0869449
0.00459654 0.079928 0.0872128
0.00508254 0.0799061 0.0873794
0.00550455 0.0798945 0.0876473
0.00599056 0.0798725 0.087814
0.0064765 0.0798506 0.0879807
0.00702649 0.0798182 0.0880461
0.0074485 0.0798066 0.088314
0.00799844 0.0797742 0.0883795
0.00854837 0.0797418 0.088445
0.00909836 0.0797095 0.0885104
0.0096483 0.079677 0.0885759
0.0101982 0.0796447 0.0886414
0.0106842 0.0796227 0.0888081
0.0112342 0.0795904 0.0888736
0.0116562 0.0795788 0.0891415
0.0120782 0.0795672 0.0894094
0.0125642 0.0795452 0.089576
0.0129862 0.0795337 0.0898439
0.0134722 0.0795116 0.0900106
0.0138942 0.0795 0.0902785
0.0143162 0.0794884 0.0905464
0.0148022 0.0794665 0.0907131
0.0152882 0.0794445 0.0908798
0.0157742 0.0794225 0.0910464
0.0163241 0.0793902 0.0911119
0.0168101 0.0793682 0.0912786
0.0173601 0.0793358 0.0913441
0.0178461 0.0793138 0.0915107
0.0183321 0.0792918 0.0916774
0.0187541 0.0792803 0.0919453
0.0191761 0.0792687 0.0922132
0.019662 0.0792467 0.0923799
0.020084 0.0792351 0.0926478
0.020634 0.0792028 0.0927132
0.021056 0.0791912 0.0929811
0.021606 0.0791588 0.0930466
0.022092 0.0791368 0.0932133
0.0226419 0.0791044 0.0932788
0.0231279 0.0790825 0.0934454
0.0236139 0.0790605 0.0936122
0.0242278 0.0790177 0.0935764
0.0247778 0.0789853 0.0936418
0.0253917 0.0789426 0.0936061
0.0260696 0.0788894 0.0934691
0.0266195 0.078857 0.0935346
0.0272335 0.0788142 0.0934988
0.0277834 0.0787818 0.0935643
0.0283973 0.0787391 0.0935285
0.0290113 0.0786963 0.0934928
0.0295612 0.0786639 0.0935583
0.0301112 0.0786316 0.0936237
0.0306611 0.0785991 0.0936892
0.0312111 0.0785668 0.0937546
0.031825 0.078524 0.0937188
0.032439 0.0784812 0.0936831
0.0331924 0.0784126 0.0934265
0.0339534 0.0783407 0.0931577
0.0347146 0.0782687 0.0928888
0.0354079 0.0782089 0.0927272
0.0359655 0.0781732 0.0927804
0.0366588 0.0781133 0.0926189
0.0372843 0.0780656 0.0925648
0.0378419 0.0780298 0.0926179
0.0384674 0.077982 0.0925638
0.039025 0.0779463 0.092617
0.0396506 0.0778986 0.0925628
0.0402082 0.0778628 0.092616
0.0408337 0.077815 0.0925618
0.0414591 0.0777673 0.0925077
0.0421525 0.0777074 0.0923461
0.0427779 0.0776595 0.092292
0.043539 0.0775877 0.0920231
0.0442323 0.0775278 0.0918616
0.0449934 0.0774559 0.0915927
0.0457546 0.0773839 0.0913238
0.0464479 0.0773241 0.0911623
0.047209 0.0772521 0.0908934
0.0479701 0.0771802 0.0906246
0.0487312 0.0771083 0.0903557
0.0494923 0.0770364 0.0900867
0.0502534 0.0769644 0.0898179
0.0510146 0.0768925 0.089549
0.0517756 0.0768205 0.0892802
0.0530115 0.0766641 0.0882598
0.0535692 0.0766284 0.088313
0.0543303 0.0765565 0.0880441
0.0552271 0.0764604 0.0875605
0.0563951 0.0763161 0.0866475
0.0574953 0.0761838 0.0858418
0.0581886 0.0761239 0.0856803
0.0590175 0.0760399 0.0853041
0.0599143 0.0759439 0.0848205
0.061218 0.0757753 0.0836928
0.0619113 0.0757154 0.0835312
0.063215 0.075547 0.0824035
0.0643152 0.0754147 0.0815979
0.065551 0.0752583 0.0805775
-0.0434139 0.0788156 0.00928556
-0.0431275 0.078828 0.00976812
-0.0447404 0.0791773 0.0132571
-0.0445897 0.0792138 0.0139544
-0.0442355 0.0792143 0.0143297
-0.0461875 0.0796237 0.0183554
-0.0461724 0.0796843 0.0192675
-0.0464287 0.079793 0.0206091
-0.0466849 0.0799017 0.0219506
-0.0465343 0.0799382 0.022648
-0.0463836 0.0799748 0.0233454
-0.0463007 0.0800233 0.0241501
-0.0462178 0.0800719 0.0249548
-0.0460671 0.0801085 0.0256522
-0.0459164 0.080145 0.0263496
-0.0458336 0.0801935 0.0271543
-0.0456829 0.0802301 0.0278517
-0.0455322 0.0802666 0.028549
-0.0453814 0.0803032 0.0292464
-0.0452986 0.0803517 0.0300511
-0.0450801 0.0803762 0.0306411
-0.0448615 0.0804007 0.0312311
-0.0447108 0.0804372 0.0319285
-0.0444923 0.0804617 0.0325185
-0.0442738 0.0804863 0.0331085
-0.0439874 0.0804987 0.0335912
-0.0437011 0.0805112 0.0340738
-0.0434825 0.0805357 0.0346638
-0.0431962 0.0805482 0.0351464
-0.0429777 0.0805727 0.0357364
-0.0426913 0.0805852 0.036219
-0.042405 0.0805977 0.0367017
-0.0421186 0.0806102 0.0371843
-0.0418323 0.0806225 0.037667
-0.0416137 0.0806471 0.0382569
-0.0412595 0.0806475 0.0386322
-0.0409732 0.08066 0.0391148
-0.040619 0.0806605 0.0394901
-0.0403326 0.080673 0.0399728
-0.0399784 0.0806734 0.040348
-0.0396243 0.0806739 0.0407233
-0.0392701 0.0806743 0.0410985
-0.0388481 0.0806627 0.0413664
-0.0384261 0.0806511 0.0416343
-0.038004 0.0806395 0.0419022
-0.037582 0.0806279 0.0421702
-0.0372279 0.0806284 0.0425455
-0.0369415 0.0806409 0.043028
-0.0365873 0.0806413 0.0434033
-0.036301 0.0806538 0.043886
-0.0360146 0.0806663 0.0443686
-0.0355926 0.0806547 0.0446365
-0.0353062 0.0806672 0.0451191
-0.0350199 0.0806797 0.0456018
-0.0346657 0.0806802 0.0459771
-0.0343115 0.0806806 0.0463523
-0.0338895 0.080669 0.0466202
-0.0334675 0.0806574 0.0468881
-0.0330455 0.0806458 0.047156
-0.0325556 0.0806222 0.0473166
-0.0320658 0.0805986 0.0474771
-0.031576 0.080575 0.0476376
-0.0310861 0.0805514 0.0477981
-0.0306641 0.0805398 0.048066
-0.0302421 0.0805282 0.0483339
-0.0298879 0.0805287 0.0487092
-0.0295338 0.0805291 0.0490846
-0.0291117 0.0805175 0.0493525
-0.0287575 0.080518 0.0497277
-0.0283355 0.0805064 0.0499956
-0.0278457 0.0804828 0.0501562
-0.0273558 0.0804592 0.0503167
-0.0269338 0.0804476 0.0505846
-0.026444 0.080424 0.050745
-0.0258863 0.0803883 0.0507983
-0.0253287 0.0803527 0.0508515
-0.0247031 0.0803051 0.0507972
-0.0240098 0.0802454 0.0506357
-0.02352 0.0802217 0.0507962
-0.023098 0.0802101 0.0510641
-0.0227438 0.0802106 0.0514394
-0.0224575 0.0802231 0.0519221
-0.0221033 0.0802235 0.0522973
-0.021749 0.080224 0.0526725
-0.0213949 0.0802244 0.0530478
-0.0210407 0.0802249 0.0534231
-0.0206187 0.0802133 0.053691
-0.0202645 0.0802137 0.0540663
-0.0197746 0.0801902 0.0542268
-0.0193526 0.0801786 0.0544947
-0.0188628 0.0801549 0.0546552
-0.0183729 0.0801314 0.0548157
-0.0179509 0.0801198 0.0550836
-0.0174611 0.0800961 0.0552442
-0.0170391 0.0800845 0.0555121
-0.0165493 0.080061 0.0556727
-0.0160594 0.0800373 0.0558332
-0.0155696 0.0800138 0.0559938
-0.0150119 0.0799781 0.0560469
-0.0144543 0.0799425 0.0561001
-0.0139644 0.0799188 0.0562606
-0.0134746 0.0798953 0.0564211
-0.0129169 0.0798596 0.0564743
-0.0124949 0.079848 0.0567422
-0.0120729 0.0798364 0.0570101
-0.0115152 0.0798008 0.0570633
-0.0110932 0.0797892 0.0573312
-0.0108746 0.0798137 0.0579211
-0.0106561 0.0798382 0.0585112
-0.0107089 0.0799108 0.0595307
-0.0109652 0.0800196 0.0608723
-0.0110858 0.0801042 0.061999
-0.0112064 0.0801889 0.0631258
-0.0110557 0.0802254 0.0638232
-0.0119632 0.0804424 0.0661954
-0.0119251 0.0804927 0.0670706
-0.0118869 0.080543 0.0679458
-0.0124244 0.0806862 0.0697319
-0.0124502 0.0807468 0.0707083
-0.012348 0.0807868 0.0714823
-0.0122459 0.0808268 0.0722562
-0.0120158 0.0808462 0.0728278
-0.0117857 0.0808656 0.0733993
-0.0115556 0.0808849 0.0739709
-0.0112615 0.0808939 0.0744412
-0.0109674 0.080903 0.0749115
-0.0106734 0.0809121 0.0753819
-0.0103793 0.0809211 0.0758522
-0.0100852 0.0809302 0.0763226
-0.0097272 0.0809289 0.0766917
-0.00943311 0.080938 0.077162
-0.00913903 0.080947 0.0776323
-0.00878101 0.0809458 0.0780015
-0.00842293 0.0809445 0.0783705
-0.00793698 0.0809226 0.0785373
-0.00745098 0.0809007 0.0787039
-0.00702897 0.0808891 0.0789718
-0.00647903 0.0808569 0.0790373
-0.00599303 0.080835 0.079204
-0.00563501 0.0808337 0.0795731
-0.00521299 0.0808222 0.079841
-0.00485497 0.0808209 0.0802102
-0.00456089 0.0808299 0.0806805
-0.00426681 0.0808389 0.0811508
-0.00390873 0.0808377 0.0815199
-0.00355071 0.0808364 0.081889
-0.00319269 0.0808351 0.0822582
-0.00283461 0.0808339 0.0826272
-0.0024126 0.0808224 0.0828951
-0.00199059 0.0808108 0.0831631
-0.00156858 0.0807992 0.083431
-0.00114657 0.0807876 0.0836989
-0.000660618 0.0807657 0.0838656
-0.000174614 0.0807438 0.0840323
0.00031139 0.0807219 0.0841989
0.000797337 0.0807 0.0843656
0.00121935 0.0806884 0.0846335
0.00164136 0.0806768 0.0849015
0.00199944 0.0806756 0.0852705
0.00242145 0.080664 0.0855384
0.00277947 0.0806627 0.0859076
0.00320148 0.0806511 0.0861755
0.00368749 0.0806293 0.0863421
0.0041095 0.0806177 0.08661
0.00453151 0.0806061 0.0868779
0.00495352 0.0805945 0.0871458
0.00537553 0.080583 0.0874137
0.00586148 0.080561 0.0875805
0.00634748 0.0805391 0.0877471
0.00683343 0.0805173 0.0879139
0.00731944 0.0804954 0.0880805
0.00774145 0.0804838 0.0883484
0.00829139 0.0804516 0.0884139
0.00884133 0.0804193 0.0884794
0.00939132 0.0803872 0.0885448
0.00987727 0.0803652 0.0887116
0.0104272 0.0803331 0.0887771
0.0109132 0.0803111 0.0889437
0.0113992 0.0802892 0.0891104
0.0118852 0.0802674 0.0892771
0.0123712 0.0802454 0.0894438
0.0128571 0.0802235 0.0896105
0.0132791 0.0802119 0.0898784
0.0137651 0.0801901 0.0900451
0.0141871 0.0801785 0.090313
0.0146731 0.0801565 0.0904796
0.0151591 0.0801347 0.0906464
0.0156451 0.0801128 0.090813
0.0161311 0.0800909 0.0909797
0.0166171 0.080069 0.0911464
0.017167 0.0800368 0.0912119
0.017717 0.0800046 0.0912773
0.0182029 0.0799827 0.091444
0.0186249 0.0799711 0.091712
0.019111 0.0799492 0.0918786
0.019533 0.0799376 0.0921465
0.019955 0.079926 0.0924144
0.0204409 0.0799041 0.0925812
0.0209269 0.0798823 0.0927478
0.0214129 0.0798603 0.0929145
0.0219629 0.0798282 0.09298
0.0224489 0.0798062 0.0931466
0.0229348 0.0797843 0.0933133
0.0234848 0.0797522 0.0933788
0.0239708 0.0797302 0.0935455
0.0245207 0.0796981 0.093611
0.0251346 0.0796555 0.0935752
0.0257486 0.079613 0.0935395
0.0263625 0.0795705 0.0935037
0.0269764 0.0795279 0.093468
0.0275264 0.0794957 0.0935335
0.0281403 0.0794531 0.0934977
0.0286902 0.079421 0.0935632
0.0293042 0.0793785 0.0935274
0.0297901 0.0793565 0.0936942
0.0304041 0.079314 0.0936584
0.030954 0.0792818 0.0937239
0.031504 0.0792496 0.0937893
0.0321819 0.0791967 0.0936524
0.0327958 0.0791542 0.0936167
0.0335569 0.0790825 0.0933478
0.0343859 0.0789988 0.0929714
0.0350793 0.0789391 0.0928099
0.0357047 0.0788913 0.0927557
0.0363302 0.0788437 0.0927015
0.0369557 0.078796 0.0926473
0.0375812 0.0787484 0.0925931
0.0381389 0.0787127 0.0926463
0.0387644 0.0786651 0.0925921
0.0393899 0.0786174 0.0925378
0.0399475 0.0785817 0.0925911
0.0405052 0.0785461 0.0926443
0.0411985 0.0784864 0.0924827
0.041824 0.0784388 0.0924285
0.0425174 0.0783791 0.0922669
0.043075 0.0783434 0.0923201
0.0438362 0.0782717 0.0920512
0.0445974 0.0782 0.0917822
0.0452907 0.0781403 0.0916207
0.0460519 0.0780686 0.0913517
0.0468808 0.0779848 0.0909755
0.0475741 0.0779251 0.0908139
0.0484709 0.0778294 0.0903302
0.0491643 0.0777697 0.0901686
0.0499254 0.0776979 0.0898997
0.0506866 0.0776262 0.0896308
0.0513121 0.0775785 0.0895766
0.052141 0.0774947 0.0892003
0.0533092 0.0773509 0.0882872
0.0538668 0.0773152 0.0883404
0.0546958 0.0772315 0.0879641
0.0557961 0.0770997 0.0871583
0.0570999 0.0769316 0.0860305
0.057861 0.07686 0.0857616
0.0585544 0.0768003 0.0856
0.0594512 0.0767045 0.0851163
0.0606193 0.0765606 0.0842032
0.061584 0.0764527 0.0836121
0.0624808 0.076357 0.0831285
0.0637846 0.0761891 0.0820006
0.064817 0.0760692 0.0813022
0.0659173 0.0759374 0.0804965
-0.0439594 0.0795304 0.0087759
-0.0438765 0.0795787 0.0095807
-0.0450826 0.0798549 0.0124257
-0.0449319 0.0798912 0.013123
-0.0445777 0.0798916 0.0134983
-0.0441557 0.07988 0.0137662
-0.0468541 0.0804198 0.0189734
-0.0471105 0.0805282 0.0203151
-0.0470955 0.0805885 0.0212272
-0.0471483 0.0806609 0.0222467
-0.0469298 0.0806852 0.0228368
-0.046847 0.0807335 0.0236416
-0.0467642 0.080782 0.0244464
-0.0466814 0.0808303 0.0252512
-0.0464628 0.0808546 0.0258412
-0.0463122 0.0808911 0.0265386
-0.0462293 0.0809394 0.0273433
-0.0460108 0.0809638 0.0279334
-0.045928 0.0810121 0.0287382
-0.0457095 0.0810366 0.0293283
-0.0455588 0.0810729 0.0300256
-0.0454081 0.0811092 0.030723
-0.0452575 0.0811456 0.0314205
-0.0449712 0.0811581 0.0319031
-0.0448205 0.0811944 0.0326005
-0.044602 0.0812188 0.0331906
-0.0443156 0.0812311 0.0336732
-0.0440293 0.0812435 0.0341559
-0.0438108 0.081268 0.0347458
-0.0435923 0.0812923 0.0353359
-0.0433059 0.0813047 0.0358185
-0.0430196 0.0813171 0.0363012
-0.0427333 0.0813295 0.0367839
-0.0424469 0.0813419 0.0372666
-0.0421606 0.0813542 0.0377492
-0.0418742 0.0813667 0.0382318
-0.0415879 0.0813791 0.0387145
-0.0413015 0.0813915 0.0391971
-0.0410152 0.0814039 0.0396798
-0.040661 0.0814043 0.0400551
-0.0403747 0.0814166 0.0405377
-0.0400205 0.081417 0.040913
-0.0396663 0.0814174 0.0412883
-0.0392443 0.0814059 0.0415562
-0.0388223 0.0813943 0.0418241
-0.0383325 0.0813707 0.0419847
-0.0379105 0.0813591 0.0422526
-0.0374885 0.0813476 0.0425205
-0.0371343 0.081348 0.0428957
-0.0367801 0.0813484 0.043271
-0.0364938 0.0813607 0.0437537
-0.0361396 0.0813612 0.044129
-0.0358533 0.0813736 0.0446116
-0.0355669 0.081386 0.0450943
-0.0352127 0.0813864 0.0454695
-0.0349264 0.0813988 0.0459522
-0.0345722 0.0813992 0.0463274
-0.0342181 0.0813996 0.0467028
-0.033796 0.081388 0.0469707
-0.033374 0.0813764 0.0472386
-0.032952 0.0813648 0.0475065
-0.03253 0.0813533 0.0477744
-0.0320401 0.0813297 0.0479349
-0.0315503 0.0813061 0.0480954
-0.0309926 0.0812706 0.0481485
-0.0305706 0.081259 0.0484164
-0.0301486 0.0812474 0.0486843
-0.0297266 0.0812359 0.0489522
-0.0293724 0.0812363 0.0493275
-0.0289504 0.0812247 0.0495954
-0.0285284 0.0812131 0.0498633
-0.0281064 0.0812015 0.0501312
-0.0276165 0.081178 0.0502917
-0.0271945 0.0811664 0.0505596
-0.0267047 0.0811428 0.0507202
-0.026147 0.0811073 0.0507734
-0.0256571 0.0810837 0.0509339
-0.0250994 0.0810481 0.050987
-0.0244061 0.0809886 0.0508254
-0.0237806 0.080941 0.0507712
-0.0232907 0.0809175 0.0509317
-0.0228687 0.0809059 0.0511996
-0.0225145 0.0809063 0.0515749
-0.0221604 0.0809067 0.0519502
-0.0218062 0.0809071 0.0523254
-0.021452 0.0809075 0.0527008
-0.0210978 0.0809079 0.053076
-0.0207437 0.0809083 0.0534513
-0.0203216 0.0808967 0.0537192
-0.0198996 0.0808851 0.0539871
-0.0194776 0.0808736 0.054255
-0.0190556 0.080862 0.0545229
-0.0185657 0.0808384 0.0546834
-0.0182116 0.0808388 0.0550587
-0.0178574 0.0808392 0.055434
-0.0174354 0.0808276 0.0557019
-0.0170134 0.0808161 0.0559698
-0.0164557 0.0807805 0.0560229
-0.0159659 0.0807569 0.0561835
-0.0153403 0.0807094 0.0561292
-0.0147826 0.0806739 0.0561824
-0.014225 0.0806383 0.0562356
-0.0136673 0.0806028 0.0562887
-0.0131774 0.0805792 0.0564492
-0.0127554 0.0805677 0.0567171
-0.0123334 0.0805561 0.056985
-0.0117757 0.0805204 0.0570382
-0.0113537 0.0805089 0.0573061
-0.0110674 0.0805213 0.0577887
-0.0109167 0.0805577 0.0584861
-0.0106982 0.080582 0.0590762
-0.0110224 0.0807023 0.0605252
-0.0112109 0.0807986 0.0617595
-0.0113316 0.080883 0.0628864
-0.0114522 0.0809672 0.0640133
-0.0122203 0.0811574 0.0661646
-0.0120542 0.0811868 0.0668374
-0.0122079 0.0812673 0.0680162
-0.0124896 0.0813683 0.0693974
-0.0126433 0.0814488 0.0705762
-0.0125411 0.0814883 0.0713502
-0.012375 0.0815177 0.0720229
-0.0122728 0.0815573 0.0727969
-0.0120427 0.0815764 0.0733683
-0.0117486 0.0815853 0.0738387
-0.0114545 0.0815942 0.074309
-0.0112244 0.0816133 0.0748805
-0.0108664 0.0816119 0.0752497
-0.0105723 0.0816208 0.07572
-0.0103422 0.08164 0.0762915
-0.0100481 0.0816489 0.0767618
-0.0097541 0.0816578 0.0772322
-0.00939602 0.0816564 0.0776012
-0.009038 0.0816551 0.0779704
-0.00867993 0.0816537 0.0783394
-0.00825792 0.0816421 0.0786074
-0.00777197 0.0816203 0.0787741
-0.00728596 0.0815985 0.0789407
-0.00680001 0.0815767 0.0791075
-0.00625001 0.0815447 0.0791729
-0.005828 0.0815331 0.0794408
-0.00546998 0.0815317 0.0798099
-0.00504797 0.0815201 0.0800779
-0.00475389 0.081529 0.0805482
-0.00445981 0.0815379 0.0810185
-0.00410179 0.0815366 0.0813876
-0.00374372 0.0815352 0.0817567
-0.0033857 0.0815339 0.0821258
-0.00296369 0.0815223 0.0823937
-0.00260567 0.0815209 0.0827629
-0.00218366 0.0815093 0.0830308
-0.00176165 0.0814978 0.0832987
-0.00133964 0.0814862 0.0835666
-0.00085363 0.0814644 0.0837333
-0.000367626 0.0814425 0.0838999
0.000118327 0.0814208 0.0840666
0.00060433 0.0813989 0.0842333
0.00109028 0.0813772 0.0844
0.0015123 0.0813656 0.0846679
0.00193431 0.081354 0.0849359
0.00229238 0.0813526 0.0853049
0.00271439 0.081341 0.0855728
0.0031364 0.0813294 0.0858407
0.00355841 0.0813179 0.0861086
0.00404437 0.0812961 0.0862754
0.00440244 0.0812947 0.0866444
0.00482445 0.0812831 0.0869123
0.0053104 0.0812613 0.0870791
0.00573241 0.0812498 0.087347
0.00621842 0.0812279 0.0875136
0.00664043 0.0812163 0.0877815
0.00712638 0.0811946 0.0879483
0.0075484 0.081183 0.0882162
0.0080344 0.0811611 0.0883828
0.00852041 0.0811393 0.0885495
0.00907035 0.0811073 0.088615
0.0095563 0.0810854 0.0887817
0.0100423 0.0810637 0.0889484
0.0105283 0.0810418 0.0891151
0.0110143 0.08102 0.0892818
0.0115642 0.080988 0.0893473
0.0120502 0.0809661 0.089514
0.0125362 0.0809444 0.0896807
0.0130222 0.0809225 0.0898473
0.0135081 0.0809007 0.0900141
0.0139941 0.0808789 0.0901807
0.0144801 0.0808571 0.0903474
0.0149661 0.0808352 0.0905141
0.015452 0.0808135 0.0906808
0.015938 0.0807916 0.0908475
0.016424 0.0807698 0.0910142
0.0169739 0.0807378 0.0910797
0.0175239 0.0807057 0.0911451
0.0180739 0.0806737 0.0912106
0.0185598 0.0806518 0.0913774
0.0189818 0.0806402 0.0916453
0.0194678 0.0806185 0.0918119
0.0199538 0.0805966 0.0919787
0.0203119 0.0805953 0.0923477
0.0208618 0.0805633 0.0924132
0.0213478 0.0805414 0.0925799
0.0218338 0.0805196 0.0927466
0.0223198 0.0804979 0.0929133
0.0228057 0.080476 0.09308
0.0233557 0.080444 0.0931455
0.0238417 0.0804222 0.0933122
0.0243277 0.0804003 0.0934788
0.0249416 0.0803581 0.0934432
0.0254915 0.080326 0.0935086
0.0261054 0.0802837 0.0934729
0.0267194 0.0802415 0.0934371
0.0273333 0.0801991 0.0934015
0.0278832 0.0801671 0.093467
0.0284332 0.080135 0.0935325
0.0289832 0.080103 0.0935979
0.0295331 0.0800709 0.0936634
0.030083 0.0800389 0.0937288
0.030633 0.0800068 0.0937943
0.0311829 0.0799748 0.0938598
0.0318608 0.0799223 0.0937229
0.0324108 0.0798903 0.0937884
0.0331604 0.079824 0.0935379
0.0339894 0.0797406 0.0931616
0.0346828 0.079681 0.0929999
0.035444 0.0796095 0.0927309
0.0360694 0.079562 0.0926768
0.036695 0.0795144 0.0926225
0.0373205 0.0794668 0.0925683
0.0378782 0.0794313 0.0926214
0.0385037 0.0793837 0.0925673
0.0391292 0.0793362 0.092513
0.0397547 0.0792887 0.0924588
0.0402446 0.0792651 0.0926193
0.0408701 0.0792175 0.0925651
0.0414956 0.07917 0.0925108
0.0421212 0.0791225 0.0924566
0.0428145 0.079063 0.092295
0.04344 0.0790153 0.0922407
0.0441334 0.0789558 0.0920792
0.0448946 0.0788844 0.0918102
0.0455879 0.0788249 0.0916486
0.0465526 0.0787173 0.0910575
0.0473138 0.0786458 0.0907885
0.0481429 0.0785623 0.0904121
0.0488362 0.0785028 0.0902506
0.0495295 0.0784433 0.090089
0.0502229 0.0783838 0.0899274
0.0509841 0.0783122 0.0896584
0.0517453 0.0782407 0.0893894
0.0529135 0.0780972 0.0884762
0.053539 0.0780497 0.0884219
0.0543002 0.0779782 0.088153
0.0552649 0.0778707 0.0875619
0.0562975 0.0777512 0.0868633
0.0576691 0.0775719 0.085628
0.0582947 0.0775243 0.0855738
0.0589202 0.0774768 0.0855195
0.0599527 0.0773573 0.0848211
0.0611209 0.0772139 0.0839078
0.0620178 0.0771183 0.0834241
0.0629825 0.0770109 0.082833
0.0642864 0.0768435 0.081705
0.0653189 0.076724 0.0810065
-0.0443542 0.0802815 0.00896371
-0.0443392 0.0803417 0.00987592
-0.0454097 0.0805928 0.0125063
-0.0451235 0.0806051 0.012989
-0.0472116 0.0810355 0.0172302
-0.047061 0.0810718 0.0179277
-0.0475888 0.0812274 0.019699
-0.0475739 0.0812875 0.0206112
-0.0475589 0.0813476 0.0215234
-0.0475439 0.0814077 0.0224356
-0.0474611 0.0814559 0.0232404
-0.0473105 0.0814921 0.0239379
-0.0472277 0.0815402 0.0247428
-0.0470771 0.0815765 0.0254402
-0.0468586 0.0816006 0.0260302
-0.0467758 0.0816489 0.0268351
-0.0465573 0.0816731 0.0274252
-0.0464067 0.0817093 0.0281226
-0.046256 0.0817455 0.02882
-0.0460375 0.0817698 0.0294101
-0.0458869 0.0818059 0.0301075
-0.0456684 0.0818302 0.0306976
-0.0455178 0.0818664 0.0313951
-0.0452993 0.0818907 0.0319851
-0.0450808 0.0819149 0.0325752
-0.0448623 0.0819392 0.0331652
-0.044576 0.0819515 0.033648
-0.0443576 0.0819757 0.034238
-0.0441391 0.082 0.0348281
-0.0438527 0.0820123 0.0353107
-0.0436342 0.0820365 0.0359008
-0.043348 0.0820489 0.0363835
-0.0430616 0.0820612 0.0368662
-0.0427753 0.0820735 0.0373488
-0.042489 0.0820858 0.0378315
-0.0422026 0.0820981 0.0383142
-0.0419163 0.0821104 0.0387968
-0.04163 0.0821227 0.0392795
-0.0413436 0.0821351 0.0397622
-0.0409895 0.0821354 0.0401375
-0.0407031 0.0821478 0.0406201
-0.0404169 0.08216 0.0411029
-0.0400627 0.0821604 0.0414781
-0.0396406 0.0821489 0.041746
-0.0392186 0.0821373 0.0420139
-0.0387966 0.0821257 0.0422818
-0.0383068 0.0821021 0.0424424
-0.0378169 0.0820786 0.0426029
-0.0373949 0.082067 0.0428708
-0.0370408 0.0820674 0.0432461
-0.0366187 0.0820558 0.043514
-0.0363324 0.0820681 0.0439966
-0.0360461 0.0820805 0.0444793
-0.0356919 0.0820808 0.0448546
-0.0354056 0.0820931 0.0453372
-0.0350514 0.0820935 0.0457126
-0.0347651 0.0821057 0.0461952
-0.0344109 0.0821061 0.0465705
-0.0341246 0.0821184 0.0470532
-0.0337704 0.0821188 0.0474285
-0.0333484 0.0821072 0.0476964
-0.0329264 0.0820957 0.0479643
-0.0324366 0.0820721 0.0481249
-0.0319467 0.0820486 0.0482853
-0.0314568 0.0820251 0.0484458
-0.030967 0.0820015 0.0486063
-0.0304093 0.0819661 0.0486595
-0.0299194 0.0819425 0.04882
-0.0295653 0.0819429 0.0491953
-0.0291432 0.0819313 0.0494632
-0.0287212 0.0819197 0.0497311
-0.0282314 0.0818962 0.0498916
-0.0278772 0.0818966 0.0502669
-0.0273873 0.081873 0.0504274
-0.0269653 0.0818614 0.0506953
-0.0264076 0.081826 0.0507485
-0.0259856 0.0818144 0.0510164
-0.025428 0.081779 0.0510695
-0.0248024 0.0817316 0.0510153
-0.0241768 0.0816841 0.0509609
-0.0235513 0.0816367 0.0509067
-0.0230615 0.0816132 0.0510673
-0.0226395 0.0816016 0.0513352
-0.0222174 0.08159 0.0516031
-0.0217954 0.0815784 0.051871
-0.0214412 0.0815788 0.0522462
-0.0210871 0.0815792 0.0526215
-0.0207329 0.0815795 0.0529968
-0.0203109 0.0815679 0.0532647
-0.0199567 0.0815683 0.05364
-0.0196025 0.0815687 0.0540153
-0.0192484 0.081569 0.0543906
-0.0188942 0.0815694 0.0547659
-0.01854 0.0815698 0.0551411
-0.0181859 0.0815701 0.0555164
-0.0177639 0.0815585 0.0557844
-0.0173419 0.081547 0.0560523
-0.016852 0.0815235 0.0562127
-0.0162943 0.081488 0.0562659
-0.0157366 0.0814525 0.056319
-0.0151789 0.0814171 0.0563721
-0.0145534 0.0813697 0.0563179
-0.0139957 0.0813341 0.0563711
-0.013438 0.0812987 0.0564241
-0.0129481 0.0812751 0.0565847
-0.0125939 0.0812755 0.0569599
-0.0121041 0.0812519 0.0571205
-0.0115464 0.0812165 0.0571736
-0.0112601 0.0812288 0.0576563
-0.0110416 0.081253 0.0582464
-0.0108909 0.0812893 0.0589438
-0.0111474 0.0813972 0.0602855
-0.011336 0.0814931 0.06152
-0.0115924 0.081601 0.0628617
-0.0113739 0.0816253 0.0634517
-0.0122216 0.0818316 0.0657291
-0.0121194 0.0818709 0.066503
-0.012465 0.0819811 0.0679854
-0.0125547 0.0820507 0.0690629
-0.0127724 0.0821406 0.0703429
-0.0126702 0.0821798 0.0711168
-0.012568 0.0822189 0.0718907
-0.0124019 0.082248 0.0725634
-0.0122358 0.082277 0.0732362
-0.0119417 0.0822857 0.0737065
-0.0116476 0.0822944 0.0741768
-0.0113535 0.0823031 0.0746471
-0.0111234 0.082322 0.0752186
-0.0107654 0.0823206 0.0755877
-0.0105352 0.0823395 0.0761592
-0.0102412 0.0823482 0.0766295
-0.0099471 0.0823569 0.0770998
-0.00965302 0.0823656 0.0775701
-0.00929501 0.0823642 0.0779393
-0.00893694 0.0823627 0.0783084
-0.00851493 0.0823512 0.0785763
-0.00802897 0.0823295 0.078743
-0.00760696 0.0823179 0.0790109
-0.00705701 0.082286 0.0790764
-0.00650706 0.0822541 0.0791419
-0.00602105 0.0822323 0.0793085
-0.00559904 0.0822208 0.0795764
-0.00530497 0.0822296 0.0800468
-0.00494695 0.0822281 0.0804159
-0.00458888 0.0822267 0.080785
-0.00423086 0.0822253 0.0811541
-0.00393679 0.082234 0.0816244
-0.00351478 0.0822224 0.0818923
-0.0031567 0.082221 0.0822614
-0.00279869 0.0822195 0.0826306
-0.00231268 0.0821978 0.0827972
-0.00195467 0.0821963 0.0831664
-0.00146866 0.0821747 0.083333
-0.00104664 0.0821631 0.0836009
-0.000624633 0.0821515 0.0838688
-0.00013868 0.0821297 0.0840356
0.00041127 0.0820979 0.084101
0.000961217 0.0820659 0.0841665
0.00144723 0.0820443 0.0843332
0.00180524 0.0820428 0.0847023
0.00222725 0.0820312 0.0849702
0.00264926 0.0820196 0.0852382
0.00300734 0.0820182 0.0856072
0.00342935 0.0820066 0.0858751
0.00385136 0.081995 0.086143
0.00427337 0.0819835 0.0864109
0.00469538 0.0819719 0.0866788
0.0051174 0.0819603 0.0869467
0.00560335 0.0819385 0.0871135
0.00602536 0.081927 0.0873814
0.00644737 0.0819154 0.0876493
0.00686938 0.0819038 0.0879172
0.0072914 0.0818922 0.0881851
0.00777741 0.0818705 0.0883517
0.00826336 0.0818488 0.0885185
0.00874936 0.081827 0.0886851
0.00923532 0.0818054 0.0888519
0.00972133 0.0817836 0.0890185
0.0102073 0.0817618 0.0891853
0.0106933 0.0817402 0.0893519
0.0111792 0.0817184 0.0895187
0.0117292 0.0816865 0.0895842
0.0122152 0.0816648 0.0897508
0.0127011 0.081643 0.0899176
0.0132511 0.0816112 0.089983
0.0137371 0.0815894 0.0901497
0.0142231 0.0815677 0.0903164
0.014773 0.0815358 0.0903819
0.015259 0.0815141 0.0905486
0.015745 0.0814924 0.0907153
0.016231 0.0814706 0.090882
0.0167809 0.0814387 0.0909475
0.0173309 0.0814069 0.091013
0.0178808 0.0813749 0.0910785
0.0184308 0.0813431 0.091144
0.0188528 0.0813315 0.0914119
0.0193387 0.0813097 0.0915786
0.0198247 0.0812881 0.0917453
0.0202468 0.0812765 0.0920132
0.0207327 0.0812547 0.0921799
0.0212187 0.081233 0.0923466
0.0217047 0.0812113 0.0925133
0.0221907 0.0811895 0.0926799
0.0227406 0.0811577 0.0927454
0.0232266 0.0811359 0.0929122
0.0237126 0.0811143 0.0930788
0.0241985 0.0810925 0.0932456
0.0247485 0.0810605 0.0933111
0.0252984 0.0810287 0.0933766
0.0259124 0.0809867 0.0933408
0.0265263 0.0809446 0.0933051
0.0270762 0.0809128 0.0933706
