# .PCD v0.7 - Point Cloud Data file format
VERSION 0.7
FIELDS x y z
SIZE 4 4 4
TYPE F F F
COUNT 1 1 1
WIDTH 1520
HEIGHT 1
VIEWPOINT 0 0 0 1 0 0 0
POINTS 1520
DATA ascii
-6.2823801 4.2717938 2.7240591
-1.7987601 5.1055942 -0.65468103
-2.3912599 -2.842226 2.787189
-4.4909401 5.224494 -3.714421
-4.66325 -2.956996 1.000689
0.89595002 2.6430941 -1.771261
0.22653 -5.944036 4.4331288
-0.61452001 -5.9277959 4.0653992
-2.5409601 4.9461942 0.84183902
-3.5579 6.792294 -4.153841
6.78195 0.90329403 0.62159902
2.5174 1.503594 -2.9729409
7.2035699 -0.764956 -0.67638099
1.79986 7.8999939 -3.664371
-4.8443999 -2.551826 1.667779
-2.3357999 4.181294 -0.653211
-2.3926499 4.1797938 -0.75312102
1.69877 2.1613939 -2.4732411
-4.8891501 -2.0847559 2.3074591
-4.2094202 5.2280941 -3.8526111
-6.2472901 1.892894 1.565169
-2.31898 -2.2727759 3.200449
-3.57867 6.946394 -4.654161
-2.30775 4.335494 0.94322902
-3.54284 8.2018938 -6.8569312
-0.57975 3.138494 -0.106541
-3.5623701 6.7902942 -4.054101
-4.6030998 -2.670856 1.821359
-0.4386 -5.9774261 4.1476989
-3.9216101 -3.274956 1.4321491
-5.1092701 6.4478941 -3.2871411
8.5588799 -2.6108861 1.021219
8.5825596 -2.6052661 0.92863899
8.6129799 -2.603296 0.82295901
8.6424599 -2.6041961 0.72108901
8.6671 -2.6010361 0.625009
8.6707802 -2.599726 0.52099901
8.6698198 -2.6003461 0.42026901
8.6610804 -2.5992961 0.31953901
8.6493902 -2.5999961 0.218879
8.6333504 -2.603436 0.119399
8.6073999 -2.6061161 0.019618999
8.5727901 -2.608366 -0.081170999
8.5426502 -2.6139259 -0.17884099
8.4989204 -2.6148961 -0.28110099
-5.79702 0.142754 -1.152401
-6.2315698 0.30744401 0.047029
2.6085601 1.475394 -2.943891
-4.8315201 5.4726939 -3.481411
-3.4898701 7.7322941 -6.5535111
-5.7116899 1.376994 1.6421191
-5.7848902 1.232394 -0.557221
6.9588299 -2.7541361 -1.073981
6.9138198 -2.752856 -1.174541
6.8815598 -2.754446 -1.271881
6.8501401 -2.755496 -1.3699909
6.8193698 -2.7599659 -1.472351
6.79249 -2.7623861 -1.571841
6.75354 -2.7657361 -1.6710809
6.6935601 -2.7719059 -1.772881
6.6445198 -2.7768159 -1.8735909
6.5948 -2.7817659 -1.974401
6.5377202 -2.785166 -2.0702209
6.4537301 -2.7938659 -2.1739111
6.3618698 -2.8011961 -2.271261
6.2518601 -2.8117061 -2.3753109
6.15066 -2.820626 -2.475471
6.06883 -2.8268261 -2.570421
5.96662 -2.8359461 -2.669461
5.8501801 -2.846076 -2.7659609
5.57445 -2.872586 -2.8872609
5.4981599 -2.876976 -2.970161
5.4189901 -2.8832359 -3.066771
5.3220501 -2.8896861 -3.1574509
-2.96628 3.056294 -1.580431
4.6577101 0.734694 -2.9543309
-1.4804699 3.060894 -1.598071
-0.35328001 2.1790941 -2.2768209
5.2454 2.5326941 -1.0847811
-5.91329 1.377194 -0.060640998
-6.4216199 2.341994 -0.26306099
-6.6319199 2.362294 2.8346889
-6.4779201 2.3437941 -0.162761
-6.5248899 2.3451941 -0.064071
-6.5647998 1.948294 0.637739
-6.6704998 2.485594 0.33562899
6.5742602 0.89349401 1.724189
-6.2191501 2.605794 -0.66477102
-2.2104101 6.7418938 -1.4744509
-4.8329802 5.4724941 -3.381671
-3.5662701 5.698894 -2.152281
-3.56955 5.6983938 -2.053091
7.0565 0.353504 0.121569
-3.5583601 6.6319938 -5.1540809
-4.63871 -3.031796 0.89393902
-3.5734501 5.0774941 -1.6528209
-1.82499 5.1038942 -0.55214101
-2.40627 6.7425938 -1.280471
-4.5911298 -3.011076 1.0624191
-2.2330899 4.4935942 0.144859
-2.2414501 4.4943938 0.044748999
-5.0358 7.0005941 -4.4921112
-5.6121802 4.7979941 -0.67831099
-3.4972401 6.0098939 -2.752811
-6.72227 2.3542941 1.034999
-2.7662201 4.9454942 1.946969
6.95017 -0.35768601 1.7229691
-6.2497001 2.741694 -0.56380099
-2.63324 4.7921939 1.5440789
-2.5694101 4.3323941 1.646279
-2.14555 4.188694 0.345099
-2.45257 4.1764941 -0.850851
-2.60255 5.1031942 1.144749
-2.2205501 4.3390942 0.54448903
-2.20488 4.3400941 0.44480899
-3.5288 6.0089941 -2.553411
-4.6638298 1.935694 4.2177892
-4.5602198 1.944494 4.233789
-3.3836999 -3.465606 1.3570189
-3.5459299 8.1993942 -6.954741
7.2179198 -0.76376599 -0.57657099
1.78134 7.8962941 -3.4711909
-3.70859 -5.854856 3.3309391
1.05381 9.1227942 -2.968231
-0.68956 -5.8884358 4.0114689
-4.3183799 -2.831126 1.8431489
-3.5697401 6.7856941 -6.1532512
7.0116501 -0.075506002 -0.97511101
6.97328 -0.078455999 -1.075061
8.5594702 -2.4716859 0.721219
8.5868196 -2.4678459 0.61998898
8.5875196 -2.465456 0.50778902
8.5912905 -2.4720659 0.42074901
-6.421 1.8096941 0.93768901
6.7853599 0.47989401 1.522679
6.8617601 0.48499399 1.222199
6.88239 0.48439401 1.121339
8.4869299 -2.4774361 -0.080541
8.4463997 -2.4838259 -0.178471
6.83742 0.761594 -0.67715102
6.87221 0.76249403 -0.47724101
-0.79429001 2.7514939 -1.6714309
-5.2563801 1.337494 -1.352731
-5.5757298 1.373594 1.840269
-5.6499801 1.375394 1.741379
-5.9200001 1.112494 1.1409791
7.0153098 -2.6033759 -0.97467101
6.9745698 -2.606766 -1.073671
6.9382601 -2.6103859 -1.1743309
6.9105 -2.6123459 -1.2736109
6.8859901 -2.6149559 -1.373251
6.8602099 -2.617116 -1.473681
6.8299599 -2.618856 -1.5717109
6.7803302 -2.6235261 -1.672021
6.7213402 -2.629596 -1.774011
6.6708698 -2.6342759 -1.874421
6.6196699 -2.638576 -1.974261
6.5563302 -2.6442161 -2.0746911
6.4772501 -2.6507261 -2.172471
6.3754501 -2.6595659 -2.272171
6.2753301 -2.668366 -2.373461
6.1735101 -2.6771359 -2.4734809
6.0710001 -2.6860361 -2.5724609
5.9563999 -2.6958561 -2.6723509
5.8199902 -2.7083559 -2.7763309
5.6438498 -2.724726 -2.8781309
5.5720501 -2.7288361 -2.9683709
5.4832301 -2.7366259 -3.0686209
5.3908501 -2.7428761 -3.164161
0.083719999 2.7921939 -1.320291
2.0423901 0.48939401 -3.299391
4.97299 2.719794 -1.085851
-1.5827399 3.0677941 -1.6045409
-6.3024902 3.9957941 2.5264289
-5.8783598 1.374494 -0.16115101
4.8318801 2.562094 -1.5202709
-6.6301398 2.3635941 3.0351591
-6.1953301 2.3355939 -0.66237098
-4.8853502 6.8555942 -4.395391
-6.6900501 3.303894 0.82980901
-6.6862702 2.4859941 0.434479
1.72343 7.459794 -3.454751
-6.1834102 2.604094 -0.764691
-6.1394501 2.6034939 -0.86460102
-3.6673 6.467494 -5.9531808
-3.5598199 6.9475942 -5.1540208
-3.5397501 5.6986942 -2.552511
-1.26203 5.4308939 -0.75712103
-3.5674901 6.631094 -5.2541909
7.13832 -0.48942599 -0.975411
-5.07376 1.593994 3.684489
-6.5775099 3.171694 2.0310991
-3.6008401 6.9492941 -4.4535608
-3.5021501 6.6343942 -4.4539409
-4.2845502 1.569494 3.3482189
-2.2453599 4.493494 -0.055020999
-3.65855 6.4756942 -2.754281
-0.41106001 -5.6678758 -3.9140611
-6.4561501 1.954294 2.8369491
-3.4948001 6.0100942 -2.952841
-3.5811501 6.9507942 -4.853651
-2.15995 4.1880941 0.54500902
-5.2525001 1.4469939 3.226789
-3.5776401 6.3160939 -4.754981
-6.5508299 2.7503941 -0.066850998
-1.23515 5.4292941 -1.060001
-3.5894599 5.5379939 -3.152571
-3.6300199 5.9987941 -4.5561709
-3.8650801 -1.695696 3.253659
-2.59273 4.946794 1.0436389
-2.2621801 4.338294 0.744479
-2.28861 4.338294 0.84486902
-5.3017702 2.0695939 3.963449
-1.99026 3.001394 -1.7311209
-5.5792699 1.530194 3.2642291
1.70022 7.1808939 -3.1323209
6.8300099 -0.23193599 -1.573091
-2.4394 4.9490938 0.54204899
1.6712199 8.2997942 -3.8537011
-6.2213898 4.2671938 1.9246989
-5.3643599 -2.065016 1.315129
-3.5255499 6.9418941 -6.4531808
1.67111 8.1994944 -3.4700811
-3.6038599 6.632494 -3.2543311
-6.0612602 4.5302939 0.025279
-4.78054 6.3037939 -3.5877609
-3.5448201 6.7916942 -4.4537811
-2.1426101 4.036294 -0.055220999
-2.7253201 4.9461942 1.746269
6.74863 0.477864 1.622929
-6.04527 5.0834942 -0.069801003
6.4128699 0.73909402 -1.679971
6.5095501 0.74239397 -1.477291
6.6923199 0.748694 -1.073611
6.7758298 0.75869399 -0.87704098
-6.2810202 5.626194 0.71889901
-6.2090201 0.71449399 0.64337897
-5.9783201 1.113894 0.94062901
-5.9343801 1.3844939 1.039819
-6.0349398 1.114094 0.64104903
-6.01752 1.114994 0.74152899
-6.2716398 4.5449939 2.3228791
7.0348802 -2.4606559 -0.97240102
7.0008898 -2.4643259 -1.074101
6.9760799 -2.466526 -1.174441
6.94769 -2.468796 -1.273501
6.9156399 -2.4728961 -1.375581
6.8888998 -2.4748061 -1.475051
6.8488798 -2.4780459 -1.574281
6.79843 -2.4824359 -1.674691
6.7449899 -2.486856 -1.773391
6.6849499 -2.4923861 -1.8754309
6.63168 -2.4967959 -1.973961
6.5545301 -2.5034261 -2.0733311
6.45644 -2.5115759 -2.176441
6.3528099 -2.5206361 -2.2748611
6.2553802 -2.5287361 -2.378751
6.1661701 -2.536586 -2.4784911
6.07268 -2.544976 -2.574261
5.9651399 -2.5540659 -2.6682711
5.8169398 -2.5672359 -2.772501
5.7059698 -2.5777659 -2.875911
5.63661 -2.5824859 -2.9698009
5.55059 -2.591176 -3.0729909
5.45401 -2.596566 -3.164221
4.01966 2.6394939 -1.9998209
-0.23942 2.7889941 -1.312911
-0.34218001 2.794394 -1.318841
-5.8833699 4.803494 -0.17560101
-6.6561499 3.440594 0.82932901
-5.95755 3.4178939 -0.96464097
-5.8628998 1.374294 -0.260131
-5.8138099 2.179394 -0.97194099
-6.6384802 2.3637941 2.9348791
-6.26544 2.3367939 -0.56417102
-6.7300401 2.488194 0.63454902
-6.7156401 2.487694 0.53521901
-3.5676799 5.8541942 -2.252691
-6.30935 2.6085939 -0.464571
-6.27386 2.605994 -0.56435102
-3.5273399 5.8521938 -3.652801
-3.5437601 7.102994 -5.9534411
-4.9188299 5.7454939 -2.1853709
-4.2335401 -2.005326 2.9045489
-3.55671 6.6355939 -3.553421
-3.6329899 6.6298938 -3.1402211
1.5820301 6.9887938 -2.4607711
-0.087650001 -0.344616 -3.8551309
-0.53724998 5.8925939 -0.951271
-5.1902299 -2.1881759 1.632549
-2.26373 4.4924941 -0.154801
-2.2516301 4.786294 -0.459241
-0.43364999 6.554594 -2.2908311
-6.5956602 2.227294 2.9356389
-1.1656899 2.551594 -2.0643511
-6.2832098 1.671494 0.73857898
-4.8175502 1.316694 2.8937991
-4.3258801 -2.114506 2.8009591
6.9324999 0.48739401 0.82138902
-2.7541499 5.099894 1.746129
-1.23245 5.427094 -0.95758098
1.68062 7.1593938 -3.066741
-4.6600199 6.1638942 -3.8860509
-3.0325501 4.1709938 -1.3955311
-2.2066 4.339694 0.045549002
-3.57759 6.0027938 -4.3552508
-2.3350501 4.3349938 1.043399
7.19315 -0.62378597 0.92171901
-2.19859 2.805094 -1.923231
-3.5655999 5.5423942 -2.5521109
1.7032 7.1434941 -2.762351
7.1897101 -0.76541603 -0.77655101
7.18261 -0.62429601 1.021719
-6.28791 0.31398401 0.74542898
7.2128301 -0.622536 0.62135899
-2.4712801 5.2587938 0.64536899
-2.2858601 4.493494 0.54539901
7.2182002 -0.62186599 0.52174902
7.1336999 -0.768646 1.421409
1.12125 6.5310941 -1.972621
6.7186399 0.75749397 1.421419
6.75032 0.761994 1.2228889
-5.7350798 -0.134176 -1.350101
-0.96515 8.0338936 -1.891511
-6.2721901 4.2696939 2.2247691
-4.9798398 5.3408942 -1.781671
-6.4828601 3.3104939 2.7296791
-5.09905 1.745994 -1.276861
6.6526799 -0.66871601 -2.0721509
-6.6255298 2.0828941 0.736709
-6.2025599 0.71469402 0.54370898
-6.2821202 4.2660942 1.523839
-6.55125 3.0358939 2.431179
-6.01125 1.114094 0.84017903
-6.0477099 1.113894 0.54119903
7.1417298 -2.311836 -0.77449101
7.0913 -2.316186 -0.87496102
7.0499201 -2.3193159 -0.97364098
7.0254302 -2.321846 -1.0742511
7.0021 -2.3244059 -1.174691
6.9738998 -2.326406 -1.274061
6.9388299 -2.3299661 -1.374741
6.9101501 -2.332176 -1.473701
6.8623199 -2.336586 -1.5751311
6.8106599 -2.3410659 -1.674611
6.7540498 -2.345686 -1.771091
6.6925101 -2.3510859 -1.872261
6.6185999 -2.357276 -1.973981
6.54076 -2.364126 -2.072541
6.4286299 -2.3733859 -2.1744809
6.31464 -2.382926 -2.274781
6.2276802 -2.390116 -2.376441
6.1481299 -2.3974459 -2.4734709
6.06076 -2.4049859 -2.575011
5.9695601 -2.4128461 -2.672801
5.8620801 -2.421236 -2.7669511
5.7450199 -2.433636 -2.8767011
5.67765 -2.438566 -2.9729409
5.5903502 -2.4465859 -3.074841
5.4967499 -2.453316 -3.1700611
3.9717901 -0.47342601 -3.8800709
4.1135802 2.6157939 -1.975091
0.15963 2.454294 -1.965991
-4.3390002 -2.5684559 2.313509
-4.4705 6.437994 -5.0878711
-5.3014798 1.091094 2.2437091
-5.9899201 1.2472939 0.341259
-4.7013998 -0.73681599 -2.433641
-6.61203 2.3650939 3.1338789
-6.1009102 2.327594 -0.77007103
-5.78825 4.3785939 -0.76437098
-6.5488601 2.491694 2.0343189
-6.5582299 2.4926939 2.1343491
-6.4014902 2.6113939 -0.265351
-6.3538799 2.609894 -0.36394101
1.04129 6.477694 -1.919091
-3.53248 7.102694 -6.0538712
1.45663 6.8450942 -2.2569611
-4.6628599 1.606594 3.7669489
-6.1799502 1.760294 1.325799
-3.53883 6.6333938 -4.8544912
0.19279 -0.220626 -4.0565009
6.9716401 0.34517401 -0.67576098
-6.0295401 2.323694 -0.87024099
-0.42787001 5.8914938 -1.052261
-3.0529101 -2.446146 3.0103791
-2.2787199 4.4919939 -0.254511
-3.49052 7.8892941 -6.6537409
-0.33901 7.5958939 -2.5975311
7.1714802 -0.62506598 1.121859
-5.8949499 1.239894 -0.25801101
-3.48597 6.164794 -3.053591
6.9135299 0.48889399 0.92247897
6.8971701 0.486294 1.021749
6.9467402 0.48909399 0.72167897
-3.5705099 6.786994 -5.853641
-6.7851701 2.8960941 1.232469
7.2296901 -0.62127602 0.42171901
-6.3106499 3.996594 2.8253491
-3.6096699 5.073194 -1.952461
-6.3437901 1.836394 1.227119
-5.9583201 1.729794 2.1277189
-3.76384 5.9956942 -5.0550809
-2.5827899 5.4117942 1.145589
-2.6066201 5.4120941 1.2463191
-3.56528 5.5420942 -2.6523409
-3.5759499 5.5405941 -2.7522309
-3.57691 5.5400939 -2.8524711
-3.5467401 6.790894 -4.3540311
7.1574001 -0.62627602 1.2212991
-2.60429 -2.8585761 2.7553589
-2.73754 5.2537942 1.6466089
6.9585299 0.348084 1.021659
1.59674 8.5063944 -3.569191
1.6445301 8.5137939 -3.7824609
7.1361399 -0.62736601 1.321799
7.0083599 -1.060716 -1.373871
7.10501 -0.77125603 1.519999
7.18503 -0.76497602 1.1220289
-3.6309299 5.850894 -1.9542609
7.2424202 -0.76132601 0.32206899
7.0115199 -0.92073601 -1.375071
7.0588698 -0.916776 -1.273831
-6.1624699 2.4696939 -0.76454097
-4.1177702 6.7151942 -6.3924909
-3.5943 5.5392938 -3.252471
-6.41152 3.9887941 0.925969
0.03012 -0.50131601 -4.2542109
7.28864 -2.1600759 -0.47309101
7.2530098 -2.1622961 -0.57395101
7.2132702 -2.165386 -0.67321098
7.1607099 -2.169266 -0.77235103
7.1179199 -2.173866 -0.87539101
7.07936 -2.177536 -0.975191
7.0558 -2.1765759 -1.071491
7.0243502 -2.181416 -1.173931
6.98664 -2.1850159 -1.273791
6.9491901 -2.1884761 -1.374121
6.9108 -2.1917861 -1.473961
6.8677902 -2.195766 -1.571431
6.8073301 -2.200716 -1.672841
6.7432499 -2.2064459 -1.772321
6.6721802 -2.2119961 -1.875891
6.59798 -2.2178061 -1.977721
6.5241399 -2.2257161 -2.0687311
6.38975 -2.2360461 -2.173671
6.2694001 -2.2453661 -2.2795911
6.2002301 -2.2520759 -2.3744011
6.1220102 -2.2588561 -2.472791
6.0395699 -2.265856 -2.5778811
5.9696498 -2.2720261 -2.6728511
5.8910999 -2.278496 -2.7708609
5.7914 -2.287406 -2.872751
5.7045999 -2.2954459 -2.974581
5.6138 -2.3027461 -3.0731809
5.52035 -2.3096859 -3.1685009
4.1473098 -0.547566 -3.803071
-6.2441201 0.30865401 0.14671899
-6.6045799 2.901094 2.8320091
-6.2941799 5.6286941 0.81752902
-6.29561 4.4038939 1.523599
1.44374 2.8874941 -1.638281
-5.9931202 1.248094 0.44070899
-4.2040601 -0.72200602 -2.605361
-6.5390801 3.4350941 0.130329
-2.44295 -3.9402959 0.64882898
-1.3594199 2.588094 -2.1035211
-6.5548301 2.489994 1.935039
-6.5852499 2.490994 1.8344589
-6.5306401 2.614594 -0.067841001
-6.4732499 2.613394 -0.167291
-6.5876698 2.6281941 2.2332289
6.9924102 0.34877399 0.82109898
-3.56861 6.7884941 -5.4541211
-3.5311301 7.1023941 -6.1535611
7.1083102 -0.62963599 1.421029
-0.27873999 -5.938786 4.3189092
-3.5652699 6.6319938 -5.054821
-3.55246 6.632894 -4.9544911
1.50853 6.8902941 -2.654741
-6.40205 5.5002942 1.0177391
7.1430898 -0.204586 0.82135898
-0.40514001 5.8736939 -1.142971
-5.75281 1.648194 3.4868391
-2.3210101 4.490694 -0.45409101
7.2358398 -0.34028599 -0.078001
-5.9064698 1.642894 -0.46555099
-6.0681701 1.789294 -0.36234099
7.0612402 -0.773956 1.622249
-5.9263401 0.69509399 -0.55403101
-3.5648301 5.2327938 -1.851771
-2.5406599 4.168694 -0.95743102
-5.1721702 -1.969436 1.975719
0.86180001 6.3860941 -1.827161
-3.5125401 6.322094 -3.053201
6.7926798 0.902794 0.52135903
-3.5402801 6.791594 -4.853981
-3.6163399 5.382194 -2.7527111
-3.6925099 7.4178939 -5.4538612
-3.66342 6.467494 -5.7536211
-5.5601802 1.516094 2.3875389
-3.4706199 7.8910942 -6.7545209
-2.62485 5.4109941 1.3458689
-1.3283499 5.4264941 -0.65271097
7.0088401 -0.78087598 -1.374081
-3.6460299 5.5336938 -3.653861
-4.2130198 -3.3062761 1.045609
-4.2959599 -3.2710159 0.99668902
1.6037199 6.988894 -2.7757809
-3.50651 6.9346938 -6.6627612
-3.52912 6.943594 -6.3534312
-3.5439301 6.9443941 -6.1536512
-3.5460601 6.9451938 -6.0536008
-3.53228 7.8855939 -6.4569812
7.23141 -0.76269603 -0.47703099
-3.54126 6.4788942 -3.1534109
-6.3940301 4.262094 0.82508898
-3.6291599 5.696094 -1.753391
-4.79989 -2.828146 0.85949898
-4.6296 5.0263939 -2.4906111
-3.5095601 6.0072942 -3.853451
-2.7168601 5.7159939 1.344449
7.3298602 -2.0163159 -0.075470999
7.3211598 -2.0162661 -0.175771
7.31462 -2.0175059 -0.274791
7.2959299 -2.018446 -0.37572101
7.2771802 -2.020196 -0.474121
7.25001 -2.0222859 -0.57354099
7.2143202 -2.024806 -0.67404097
7.1777101 -2.0283661 -0.774481
7.1485801 -2.030086 -0.87320101
7.11584 -2.0338161 -0.975061
7.0887799 -2.0360661 -1.074391
7.0402098 -2.0405159 -1.175011
6.99998 -2.043726 -1.274291
6.9492798 -2.0485461 -1.374271
6.9022002 -2.0522161 -1.476161
6.8552699 -2.0566161 -1.571321
6.7940402 -2.0617459 -1.672461
6.72085 -2.067636 -1.774251
6.64571 -2.0737259 -1.875231
6.5792599 -2.079746 -1.972891
6.4890399 -2.087626 -2.0713611
6.3601999 -2.0982659 -2.1697509
6.2507601 -2.1072061 -2.274231
6.1867599 -2.1126361 -2.373621
6.1106801 -2.1191659 -2.4737711
6.0346899 -2.1256161 -2.573921
5.9622502 -2.132416 -2.6767409
5.9135799 -2.1353459 -2.7688911
5.8351898 -2.141516 -2.866781
5.7381301 -2.150506 -2.970561
5.6340899 -2.1591461 -3.0680411
5.5299301 -2.1676459 -3.164921
-0.89376998 2.6639941 -1.778041
-6.2573199 0.30990401 0.24601901
-6.1337399 4.2547941 -0.074381001
-4.5907402 6.0220938 -4.2857709
-5.4843402 0.66809398 -1.451591
0.88025999 2.8086939 -1.5484509
-5.9999599 1.249094 0.540829
-2.0367301 6.3901939 -1.660201
-6.4175 1.809094 0.33973899
-6.4400301 1.809994 0.43916899
5.5437698 2.097194 -1.412631
-3.42998 7.7336941 -6.9556208
-6.5820198 2.4936941 2.234719
-6.6168199 2.6176939 0.134149
-6.5854802 2.6162939 0.033298999
-6.6043601 2.6290939 2.333709
7.1269798 -0.065576002 0.72085899
7.1156902 -0.066146001 0.82099903
-3.5222499 7.1021938 -6.2539511
-3.52368 5.2393942 -1.356961
-3.6434801 6.7916942 -3.553581
7.0556402 0.353064 -0.078281
-3.4744799 7.2604942 -6.4514809
1.4874001 6.8650942 -2.5798609
-3.2242701 -3.4256959 1.531979
-3.63238 6.947494 -4.1538911
-3.5418 -3.3267059 1.555519
-2.2955899 4.4910941 -0.35385099
-5.4158001 -1.907166 1.520449
-6.1244998 1.660394 -0.059831001
-5.9644399 1.646194 -0.36465099
-2.44877 5.4125938 0.54304898
-2.4841101 5.4132938 0.64574897
-6.29599 3.9984939 2.9261489
-3.5459099 6.9454942 -5.953651
-3.55984 6.945694 -5.753921
-3.7286301 -3.294996 1.488899
-3.57164 6.7867942 -6.0535612
-3.5623701 6.779994 -6.455101
6.8898401 0.76559401 0.021648999
6.8704 0.76719397 -0.37840101
1.63968 8.5072937 -3.6681311
1.63415 8.4776936 -3.8471711
-6.6715102 3.308394 1.530799
-2.56898 4.4868941 1.446319
-4.1521802 6.1389942 -6.2214308
-6.5044999 3.1587939 -0.067891002
-4.0111098 -3.2523861 1.3949291
-0.98567998 5.584394 -0.85501099
7.0036402 0.490394 -0.078281
-4.7463002 1.450794 3.338249
-4.3793001 -3.2386661 0.952649
-3.87202 -2.7677259 2.4085491
-6.01156 1.756494 1.731679
7.1435499 -0.34530601 1.021329
-3.2079301 -5.8114362 3.741339
-3.5576999 6.945394 -5.8537111
-3.56003 6.9458938 -5.6539812
-2.5257399 5.104094 0.84624898
-2.4917901 4.4847941 1.242859
7.2408299 -0.76209599 -0.37658101
7.0724602 -0.63196599 1.5215991
7.3316102 -1.8750859 0.32357901
7.32933 -1.8756059 0.223819
7.3210602 -1.875946 0.123939
7.32409 -1.876246 0.024289001
7.31811 -1.876476 -0.075681001
7.31321 -1.877066 -0.175341
7.3033299 -1.877726 -0.275291
7.2899599 -1.878976 -0.374531
7.26544 -1.880986 -0.47470099
7.2416902 -1.882606 -0.574911
7.2174902 -1.885066 -0.67513102
7.1990299 -1.885916 -0.77359098
7.1675301 -1.8892961 -0.87536103
7.1416402 -1.891706 -0.97540098
7.1103201 -1.893536 -1.073131
7.0608201 -1.8979059 -1.173241
7.01088 -1.902586 -1.273471
6.9593401 -1.906806 -1.3731411
6.9004502 -1.9121161 -1.475191
6.8505402 -1.916556 -1.568181
6.7813401 -1.922156 -1.672241
6.69491 -1.929576 -1.774441
6.6223402 -1.9352061 -1.876771
6.5445499 -1.941856 -1.975551
6.4517202 -1.949666 -2.0722711
6.3261299 -1.960186 -2.173341
6.2634501 -1.965986 -2.273721
6.20187 -1.9711159 -2.375761
6.1276598 -1.975746 -2.4676509
6.0426302 -1.983556 -2.5705409
5.9717498 -1.990276 -2.6745009
5.9184699 -1.994556 -2.7727809
5.8516402 -1.999716 -2.870311
5.7607398 -2.007216 -2.968101
5.6284299 -2.018326 -3.0761809
-1.99098 7.1738939 -1.4851609
-5.57269 0.129234 -1.454291
0.31134 8.9193935 -2.4000311
6.9277601 -2.915436 -1.116691
-4.10495 8.5339937 -6.7736712
-5.5666199 0.672194 -1.351011
-6.0836802 0.569094 -0.254071
-5.9823098 1.248394 0.640719
-5.9702702 1.253294 0.744129
-5.9784298 1.251994 0.84178901
-6.3958702 1.807294 0.23947901
2.3531799 0.47500399 -3.2826011
-6.6266499 2.496094 2.534539
-6.5971198 2.4940939 2.3339291
-6.6732502 2.6199939 0.33434901
-6.64955 2.6188941 0.234569
-6.6080599 2.6297939 2.4333889
-5.8794899 3.0031941 -1.167071
7.0630999 0.069664001 -0.67637098
-3.4920399 7.1018939 -6.4539409
-3.5076599 7.1020942 -6.354001
7.0488801 0.35022399 -0.27735099
7.0546498 0.35259399 -0.17818099
-3.4759901 7.2590942 -6.5535011
-1.00959 0.196264 -3.1555109
-2.30458 4.9538941 0.144189
-6.4149499 1.939594 3.1057191
-2.3184299 4.4910941 0.74453902
7.03581 -0.63461602 1.6219389
6.9876199 -0.63777602 1.722959
-2.64483 5.4102941 1.444469
-2.7107301 5.4094939 1.645889
7.1626401 -0.064456001 -0.37672099
6.89854 -0.64837599 -1.675601
-6.4614601 4.678494 1.221359
-4.3826299 7.139894 -5.794981
-6.74826 2.488894 0.93379903
-6.3878598 5.2292938 0.42107901
7.1105299 -0.48802599 1.321649
-6.4533701 1.950794 1.290609
6.8849401 0.76349401 -0.177701
6.81146 0.75959402 -0.776501
6.5588198 0.74449402 -1.376561
7.0848098 -0.48990601 1.421559
-5.1329098 6.448894 -3.1865311
-4.64849 4.8946939 -1.9892009
-3.5053201 6.6337938 -4.0539908
-2.2144101 4.9539938 -0.054040998
-2.6004801 4.3302941 1.745029
6.9488902 -0.50347602 -1.475701
-2.0901301 4.035594 0.44523901
7.1333899 -0.48656601 1.221419
7.1612802 -0.34361601 0.82190901
-3.5397401 6.7926941 -4.6540012
1.31301 -0.083265997 -4.303721
7.0707102 -0.349756 1.420929
0.06044 6.0584941 -1.463411
-4.5569501 8.2667942 -6.3962011
4.8403602 2.4794941 -1.628051
-6.0309 0.15850399 -0.65083098
-4.5766101 5.475594 -5.141571
7.3156199 -1.735826 0.52315903
7.3197799 -1.735456 0.42334899
7.3253698 -1.735216 0.32313901
7.32618 -1.735366 0.22367901
7.31954 -1.735796 0.123639
7.3166699 -1.736056 0.024029
7.3069901 -1.7369159 -0.076320998
7.3027401 -1.737426 -0.175751
7.2944002 -1.738356 -0.27585101
7.2803502 -1.7391959 -0.375651
7.2648401 -1.740836 -0.474931
7.2487898 -1.741806 -0.57422101
7.2270398 -1.743986 -0.67482102
7.204 -1.745986 -0.77530098
7.1863098 -1.747236 -0.87380099
7.15341 -1.750416 -0.97510099
7.1199999 -1.752656 -1.071991
7.0730801 -1.757086 -1.173221
7.0222902 -1.761306 -1.272931
6.9672499 -1.765646 -1.3705209
6.9055901 -1.771026 -1.470971
6.8364301 -1.777066 -1.575061
6.7674398 -1.782606 -1.671541
6.68291 -1.789826 -1.774351
6.6163301 -1.795156 -1.872191
6.5404 -1.801386 -1.972321
6.4513698 -1.808726 -2.072181
6.3661599 -1.816816 -2.175451
6.3049998 -1.822546 -2.277261
6.2438502 -1.824906 -2.369211
6.1515398 -1.8318861 -2.4669609
6.0589199 -1.842086 -2.5734811
6.0066199 -1.8461061 -2.6724811
5.9429898 -1.851456 -2.7722809
5.8714199 -1.856686 -2.8650811
5.75459 -1.866846 -2.9753211
-6.5969 3.024194 0.131699
-6.2267399 0.042854 1.245189
-5.6664 0.13458399 -1.352751
-4.4015999 6.7185941 -5.4903011
-6.15769 4.2558942 0.025609
0.14654 8.4782944 -2.694391
-5.6410999 0.677194 -1.253841
-5.8461199 0.82649398 -0.75604099
-6.55302 3.0365939 2.531069
-5.4991698 4.516994 -0.97373098
-5.9528999 1.2493941 0.93967903
-6.35432 1.802294 0.138309
5.9419398 1.941694 -1.042111
-3.5841999 7.8872938 -6.3550911
-6.6164298 2.495194 2.4343791
-6.7196798 2.6218939 0.53391898
-6.69664 2.621094 0.43376899
1.48139 6.837194 -2.362221
-6.2665601 0.040754002 0.44763899
-6.2072902 -0.092625998 1.3462189
-3.4723499 7.0986938 -6.6574211
-3.4858401 7.1003938 -6.5540209
3.0931301 -0.57501602 -4.2310209
6.95193 0.34541401 -0.77678102
-3.5728099 6.6344938 -3.453661
7.0173202 -0.214716 -1.077291
-4.54741 5.213594 -3.3178711
-2.3942599 4.4864941 1.0422291
-3.4826 6.0090942 -3.2529011
-2.0353 3.8823941 0.14549901
6.9242201 0.060314 -1.075611
-2.4342401 4.6411939 0.94348902
-2.39183 4.6420941 0.84346902
-2.3712499 4.645494 0.74556899
-2.34516 4.6450939 0.64498901
-2.2723999 4.646594 -0.054970998
-2.2767501 4.6463938 -0.155211
7.0621099 -0.213286 -0.97513098
-5.9151702 1.247594 1.042099
6.3885298 -0.82988602 -2.4739709
-3.55288 5.6986942 -2.3524711
6.9662399 0.488094 0.62095898
6.9800801 0.48939401 0.421139
6.7426801 0.751894 -0.97363102
6.8584199 0.76119399 -0.57669097
-1.20849 0.192384 -3.125201
3.2372401 -0.25072601 -4.115191
-6.29635 3.016094 -0.464901
-2.1262901 4.9387941 -0.349601
-3.50945 7.8882942 -6.5543408
-2.3248899 2.9684939 -1.691361
-5.1140199 1.0582941 -1.652361
-5.80476 0.551494 -0.95165098
6.6461601 0.89619398 1.5223891
-4.5184698 6.4388938 -4.887991
7.2476802 -1.600346 1.222689
-4.8821802 5.3373942 -2.3814411
-6.1728802 2.739594 -0.76558101
6.7823701 -0.23442601 -1.6742311
7.2923298 -1.5974261 0.82296902
7.2948799 -1.597326 0.723189
7.3016 -1.597016 0.62282902
7.30618 -1.596606 0.523049
7.3139501 -1.596176 0.42277899
7.3160501 -1.595896 0.323219
7.3194299 -1.595426 0.223369
7.3190598 -1.5958461 0.123509
7.3108702 -1.596626 0.023508999
7.3127799 -1.596046 -0.076001003
7.3053498 -1.597026 -0.17604101
7.2964702 -1.598076 -0.27629101
7.2898002 -1.598386 -0.37548101
7.2699199 -1.600246 -0.47613099
7.2525301 -1.6018161 -0.57506102
7.2286901 -1.603876 -0.67512101
7.2106299 -1.6052361 -0.77402103
7.1859999 -1.607796 -0.87377101
7.1585898 -1.609766 -0.97292101
7.1229 -1.613066 -1.073171
7.07371 -1.6170059 -1.173601
7.0215302 -1.6212161 -1.272531
6.9593601 -1.626266 -1.372991
6.9058299 -1.630426 -1.4714611
6.8513298 -1.6344759 -1.569201
6.7792902 -1.640476 -1.671271
6.7009802 -1.646576 -1.769951
6.6479201 -1.649776 -1.868991
6.5890598 -1.6557159 -1.971501
6.5229802 -1.660166 -2.0696111
6.4284902 -1.6708961 -2.174531
6.37078 -1.672696 -2.269191
6.2845602 -1.681066 -2.371191
6.1926198 -1.687736 -2.4688611
6.10461 -1.695946 -2.5696011
6.0335898 -1.7034661 -2.673991
5.9566998 -1.709476 -2.7736011
5.8723698 -1.7160259 -2.8651309
5.73735 -1.727296 -2.9700511
-6.5980301 3.0345941 2.031549
-6.23315 0.042704001 1.147369
-5.7313399 0.139264 -1.255741
-4.4354 6.7190938 -5.3896909
-6.3931999 4.679894 1.421479
-4.7564602 8.4017944 -6.293231
-5.7175999 0.68289399 -1.156521
-5.74932 0.68429399 -1.054791
-5.8348899 0.68989402 -0.85560101
-6.2526302 4.2687941 2.124579
-6.1392899 3.4255941 -0.66746098
-6.3163199 1.804494 0.040548999
2.98071 2.787194 -1.9487309
-2.0980699 4.038794 0.24487901
-6.5174098 3.308594 2.2296591
-6.5482101 3.3098941 2.0313289
-6.7339101 2.6225941 0.63323897
1.68501 8.0480938 -3.370131
-3.71049 7.0995941 -4.2548709
-5.16926 0.102504 -1.946821
-3.18382 -2.9318659 2.5209191
1.06681 -5.926116 4.253139
-0.21177 -0.48259601 -3.8530409
-3.5262001 6.633594 -4.7543011
-3.5994201 7.1062942 -5.1531711
-3.97264 -2.9448259 2.0143991
-2.3438599 4.4915938 0.84516901
-2.3631599 4.4887938 0.94354898
-2.3480699 4.4897938 -0.55458099
-2.0585799 3.884594 0.045139
-2.4788699 4.6390939 1.042879
6.9074602 -0.361206 1.820859
-3.63673 -2.9532759 2.268029
-4.7052398 -2.967896 0.82570899
-2.3331001 -5.9319758 3.7033391
-2.4511099 -5.9568362 3.6937089
-2.2799001 4.6462941 -0.25465101
-2.4376099 4.4850941 1.1422091
-3.5880799 6.7912941 -3.8537409
-0.52937001 -5.9571161 4.109539
-6.3763599 4.262094 0.72461897
6.9899402 0.48919401 0.321049
7.0005102 0.48889399 0.22107901
6.8818002 0.76709402 0.121719
-4.6461401 6.1635938 -3.985621
-5.6384301 1.239494 1.742959
-2.4121001 0.898094 -2.914921
-4.5728102 7.7008939 -5.8980012
-3.6114299 8.0454941 -6.4541712
-6.7369599 2.626694 1.5346889
7.2498899 -0.76116598 -0.276411
7.2610502 -0.76023602 -0.176631
7.2662101 -0.75972599 -0.077390999
7.18297 -1.465356 1.421759
7.2115002 -1.463066 1.322759
7.2409701 -1.461266 1.221289
7.2584701 -1.459886 1.122319
7.2709699 -1.458896 1.022629
7.2725201 -1.458716 0.92298901
7.2796898 -1.458426 0.82281899
7.2881799 -1.458076 0.72225899
7.2908301 -1.4578561 0.62268901
7.2942901 -1.457566 0.52286899
7.3034201 -1.4569761 0.422649
7.3061399 -1.4567961 0.322909
7.3146 -1.4560061 0.222819
7.3167701 -1.455846 0.123219
7.3147101 -1.456136 0.023259001
7.3070002 -1.456926 -0.076571003
7.3031902 -1.457146 -0.17604101
7.2946601 -1.458196 -0.27634099
7.28897 -1.458726 -0.375471
7.2684102 -1.460526 -0.475981
7.2510099 -1.462346 -0.57477099
7.2281899 -1.464236 -0.67526102
7.2100701 -1.4661959 -0.77371103
7.1771598 -1.468556 -0.87480098
7.1458302 -1.471766 -0.97271103
7.1012001 -1.474666 -1.074671
7.0602198 -1.477986 -1.173571
7.00984 -1.482106 -1.273351
6.9618602 -1.486066 -1.3745511
6.9207602 -1.488986 -1.472881
6.8699298 -1.4929661 -1.572951
6.8001699 -1.497496 -1.6695009
6.7434802 -1.502786 -1.773271
6.6933498 -1.507316 -1.873661
6.6483402 -1.508706 -1.969811
6.5893102 -1.515056 -2.0720611
6.5296698 -1.515926 -2.1663809
6.4471598 -1.525666 -2.2698009
6.3666701 -1.5300159 -2.3664711
6.26793 -1.5394959 -2.4676609
6.1772699 -1.5471261 -2.5661409
6.0736599 -1.559936 -2.676451
5.9875998 -1.564736 -2.7657809
5.8512001 -1.5770659 -2.8691311
-6.2656898 -0.092175998 0.94774902
-4.2474799 8.1288939 -6.5982208
-6.24438 0.042583998 1.046729
-5.6728301 4.7993941 -0.57859099
-4.3591099 6.2939939 -5.586421
-4.9642501 5.4828939 -1.587041
-4.2948399 6.8583941 -5.8916612
-5.0924702 6.8643942 -4.189321
-4.5563302 6.8609939 -5.0907612
-5.7779198 0.68709397 -0.95687097
-6.2272701 3.0144939 -0.56458098
-6.3130398 3.996294 2.626159
-5.2083001 1.750894 -1.178211
-5.3337102 1.752394 -1.096001
-6.7423501 2.488694 0.73447901
-3.5103099 0.015384 -2.7580309
-0.081519999 8.6232939 -2.198081
-6.7548599 2.623394 0.73349899
-3.5431399 6.790894 -4.9539309
-3.6795499 7.1016941 -4.4544311
-3.6949799 7.1007938 -4.3543811
-3.6598899 7.105494 -4.6536908
-6.2873402 -0.22606599 0.94838899
-2.4158299 5.105794 0.445099
-3.5154901 6.6336942 -4.6541109
-3.6580999 6.0059938 -2.054111
-3.2918701 -2.1407659 3.2256789
-4.7720098 -2.900126 0.75185901
-4.6170301 1.5697941 3.6292491
-4.99473 -2.274636 1.922969
-5.9825602 0.56489402 -0.456781
-2.5954199 4.6408939 1.446739
-3.54918 5.2338939 -1.452191
7.1872902 -0.90587598 -0.67523098
-3.55006 5.6961942 -3.1526711
-3.5634601 6.9469938 -4.9541211
-3.6536701 4.914494 -1.855211
-2.29653 4.644094 -0.356231
-2.56971 4.9458938 0.941939
-3.4963 6.0096941 -2.852711
-3.6188099 6.7896938 -3.6541209
-3.9770601 6.036994 -6.1279712
-3.56319 5.6941938 -3.5528109
6.8780198 0.76529402 0.221369
-3.60337 6.0003939 -4.455771
7.14924 -0.203256 0.72190899
-4.2610202 4.6280942 -1.788111
-4.3506999 8.1299944 -6.4934611
6.4619002 0.74119401 -1.578691
6.80832 0.76349401 0.82171899
-5.00804 -2.6995161 0.35092899
7.2663999 -0.75990599 0.022298999
7.1043901 -1.330616 1.620129
7.1322899 -1.3287359 1.521369
7.1689 -1.326306 1.421289
7.1971898 -1.324246 1.3221689
7.2225299 -1.322456 1.2224391
7.23943 -1.320936 1.123479
7.25598 -1.320226 1.022259
7.25776 -1.320226 0.92257899
7.2646198 -1.319766 0.82232898
7.2735901 -1.3195159 0.72228903
7.27916 -1.3187259 0.62261897
7.2814102 -1.318576 0.52279902
7.2898998 -1.318246 0.42226899
7.2951698 -1.3176759 0.32276899
7.3038802 -1.317086 0.222689
7.3070102 -1.3167861 0.122929
7.3071599 -1.316736 0.023189001
7.30547 -1.317036 -0.076770999
7.3018899 -1.317656 -0.176241
7.2905502 -1.3184659 -0.27596101
7.2772999 -1.319826 -0.37550101
7.2619901 -1.321476 -0.47488099
7.2396002 -1.3234659 -0.575001
7.2216702 -1.325696 -0.67335099
7.1835098 -1.327296 -0.77678102
7.1519399 -1.330646 -0.87480098
7.11341 -1.333656 -0.97476101
7.0760002 -1.336406 -1.074911
7.04567 -1.335336 -1.173251
7.0106101 -1.341516 -1.274091
6.9719901 -1.344586 -1.373751
6.9319901 -1.347396 -1.472731
6.8805699 -1.351416 -1.572371
6.8292398 -1.355116 -1.672061
6.7868199 -1.357276 -1.770911
6.7423801 -1.362576 -1.873181
6.6999698 -1.364856 -1.971121
6.6416702 -1.371266 -2.073241
6.5855298 -1.374066 -2.1700611
6.52144 -1.378906 -2.2689509
6.4542999 -1.383016 -2.3656609
6.3460798 -1.394136 -2.469991
6.26406 -1.3987859 -2.563941
6.15097 -1.409106 -2.6635709
6.0158401 -1.422226 -2.768451
-6.26262 -0.091236003 1.146749
-6.2681699 -0.091286004 1.0476691
-1.03412 -4.9051962 -3.2379711
-6.2539802 0.042284001 0.84702897
-5.99721 3.006794 -1.066011
-4.2708502 6.2909942 -5.9885011
-5.55404 4.7966938 -0.77908099
-5.2628102 5.2069941 -1.077251
-5.08568 5.0660939 -1.2793911
-5.0689001 6.8689942 -3.1899409
-6.0843401 0.70489401 -0.154911
-6.2383499 4.2685938 2.0246489
-6.3138199 3.9968939 2.7261591
-5.5222001 1.758094 -0.979541
2.8747101 2.783494 -1.945071
-6.6311498 2.4963939 2.6338589
-6.6396899 2.497494 2.734329
-5.9650698 4.1106939 -0.67163098
-6.7658501 2.6243939 0.833579
-3.67223 7.1085939 -4.5641308
-3.6479399 7.1042938 -4.7540011
-3.59132 6.315094 -4.8551612
-3.6665101 6.789094 -3.4407711
-3.5458 5.8479939 -3.8540709
-3.5953 6.6376939 -3.3526111
-3.48405 6.321394 -3.6532609
-2.1705899 4.9535942 -0.15360101
-3.59917 5.0742941 -1.852531
-3.8512599 -3.3907659 1.193289
-2.39151 4.4884939 -0.65427101
-2.58605 4.6396942 1.345489
-2.2506599 4.7958941 -0.253941
-2.1261899 4.9149938 -0.45196101
-3.5243399 6.318994 -4.454361
-3.51086 6.3195939 -4.3541312
7.1044798 -0.066756003 0.92094898
-3.63538 4.9153938 -1.757761
-2.3052299 4.6455941 -0.454721
-2.33886 4.6425939 -0.557051
-3.46859 -3.454776 1.332299
-3.4875801 6.3212938 -3.353591
7.2364702 -0.34035599 -0.177561
6.6614199 0.75629401 1.623189
1.76661 8.0501938 -3.572161
-3.4881899 6.3209939 -3.2539411
6.8817201 -0.085285999 -1.2738611
-0.099339999 6.0381942 -1.147791
-3.6278801 6.0073938 -2.153621
-3.45998 7.731894 -6.7538209
7.0240898 -1.1970561 1.822969
7.2602 -0.76058602 0.121579
7.0978699 -1.191316 1.622319
7.13485 -1.188536 1.522249
7.1623802 -1.186686 1.422789
7.1907501 -1.184566 1.320709
7.2088799 -1.183346 1.222229
7.22995 -1.182106 1.121969
7.2353101 -1.181536 1.022889
7.2424698 -1.181326 0.92221898
7.2505798 -1.181026 0.82203901
7.2564301 -1.180216 0.72241902
7.2647099 -1.180056 0.62234902
7.2677302 -1.1795959 0.52231902
7.27636 -1.179216 0.42213899
7.2818899 -1.178526 0.32254899
7.2903299 -1.178136 0.222399
7.2937799 -1.177706 0.122689
7.30194 -1.177466 0.022899
7.2955098 -1.177696 -0.077000998
7.2897401 -1.1786259 -0.176311
7.2782698 -1.179536 -0.27612099
7.26053 -1.180616 -0.37691101
7.2435198 -1.182386 -0.475981
7.21526 -1.184986 -0.57519102
7.1844902 -1.187876 -0.673531
7.14819 -1.191236 -0.77399099
7.1127901 -1.195186 -0.87360102
7.08956 -1.195006 -0.975281
7.0700202 -1.196506 -1.076671
7.05233 -1.198066 -1.1757309
7.0241299 -1.199216 -1.274421
6.9926901 -1.2019759 -1.372331
6.9467301 -1.206126 -1.474001
6.9040599 -1.208686 -1.572161
6.85852 -1.213426 -1.6740609
6.8158498 -1.215826 -1.772101
6.7753601 -1.218766 -1.871281
6.7277298 -1.223356 -1.972331
6.6774802 -1.227636 -2.072361
6.6146998 -1.232776 -2.1725709
6.5506601 -1.237926 -2.271791
6.4884601 -1.243296 -2.372741
6.3986602 -1.250466 -2.471751
6.3052201 -1.256996 -2.566931
6.2021999 -1.256516 -2.6687109
-2.88955 2.9030941 -1.617141
-0.18752 -0.33949599 -3.6542611
-6.6318498 3.300694 0.43013901
-5.9045401 0.014034 -0.95201099
-6.2455802 0.042433999 0.94721901
-6.55551 3.0354941 2.231499
-6.3708401 3.9864941 0.52815902
-5.0840402 6.1720939 -2.3857911
-1.91378 7.1727939 -1.583221
-4.73311 4.9145942 -1.783291
-6.2032399 4.2583938 0.225859
-5.8742199 0.69309402 -0.756791
-4.22017 8.2711945 -6.695241
-3.30357 -0.26775599 -2.8568709
-6.2634802 1.798794 -0.061370999
-5.9219699 2.4554939 -1.073341
-6.6485 2.4980941 2.8341489
-6.6505599 2.4986939 2.9341891
2.51636 0.288784 -3.6855409
-6.7681298 2.624794 0.93329901
-6.7127399 3.3053939 1.029669
-3.57687 6.9472942 -4.7540112
-3.62675 7.1079941 -4.9531112
-3.64306 7.106894 -4.8535209
7.2498798 -0.76111603 0.22153901
-6.5900898 2.6257939 1.934539
-3.54445 6.790194 -5.0540009
-3.4498 7.2591939 -6.6547809
-3.63922 -5.9143562 3.3966191
-3.5668499 6.4742942 -4.9545512
-0.34325001 5.8757939 -1.251781
-3.58585 5.0761938 -1.752771
-3.10675 -2.853426 2.645299
-2.73173 5.099494 1.644449
-1.87203 2.8228941 -1.945701
-3.66798 6.3126941 -5.3544312
-3.6517899 6.3128939 -5.2548409
1.80627 7.7489939 -3.4725709
-3.4966199 6.3195939 -4.2542009
0.68787998 2.6480939 -1.776171
-3.5759599 4.9220939 -1.552961
-2.49807 -2.4796159 2.9873791
-3.6582 5.997694 -4.6563611
1.69828 7.8966942 -3.270081
-2.61217 4.7941942 1.445969
-3.56282 5.3876939 -2.152231
-3.50968 6.1620941 -4.1538911
7.0780802 -0.069866002 -0.77665102
-1.83506 5.0895939 -0.54885101
-3.57145 6.787694 -5.753531
-3.28723 -3.477596 1.388099
-1.99411 4.9732938 -0.54921103
1.63744 7.8932939 -3.1746011
7.0608501 -1.054116 1.722499
7.09553 -1.051566 1.621179
7.1317401 -1.048846 1.521039
7.1599102 -1.046496 1.421959
7.1847301 -1.044796 1.321949
7.2034998 -1.043636 1.221169
7.2109299 -1.043156 1.122599
7.2217898 -1.042436 1.0223891
7.2306199 -1.042156 0.92223901
7.23421 -1.041566 0.82262897
7.2424202 -1.041276 0.72228903
7.25313 -1.040666 0.62204897
7.2572699 -1.040176 0.52236903
7.26402 -1.0401959 0.42188901
7.2684999 -1.039656 0.322409
7.27704 -1.039196 0.222149
7.28021 -1.038926 0.122459
7.2880902 -1.038496 0.022789
7.2831998 -1.038546 -0.076971002
7.2780199 -1.039346 -0.176431
7.2641101 -1.040706 -0.275971
7.2486501 -1.0424761 -0.37507099
7.2279 -1.043666 -0.47545099
7.1978402 -1.0462559 -0.57427102
7.1711798 -1.0489759 -0.670811
7.15272 -1.049396 -0.77579099
7.1315198 -1.052086 -0.87667102
7.1148701 -1.051946 -0.97570097
7.0976501 -1.053146 -1.075171
7.0767002 -1.055586 -1.175521
7.0479498 -1.057596 -1.274491
-4.1498199 6.1088939 0.74945903
-1.21319 2.8000939 1.736269
-0.85448998 3.2284939 -0.207691
-4.36379 6.1088939 0.67346901
-0.94809002 3.2543941 -0.241991
-6.6061702 2.7649939 2.5327089
-4.9900699 6.858994 -4.2927308
-1.36391 3.3486941 0.048029002
-5.7879701 5.8430939 0.47113901
-5.00877 5.320694 3.1290891
-4.1977201 6.0679941 0.15157899
-1.04179 3.2802939 -0.27605101
-1.13587 3.3018939 -0.310211
-3.59901 8.2962942 -6.8759508
-3.6677699 8.3791943 -6.8821712
-4.6919599 5.0574942 -2.1800909
-6.5338998 2.2236941 2.2366891
-4.2597299 6.1084938 0.71047902
-0.49585 2.892894 1.2529089
-4.7524199 6.0365939 -0.045821
-1.24336 3.3082941 -0.35115099
-1.3423899 3.3242941 -0.38701099
-3.58143 8.2053938 -6.7116709
-3.6354301 8.3117943 -6.7304711
-3.6958699 8.4025936 -6.753881
-3.7677901 8.4733944 -6.7829909
-3.8550999 8.5204945 -6.8261309
-6.6231599 2.767494 2.832499
-6.6132498 2.7668941 2.7322791
-1.91 3.437794 1.322639
-2.66471 5.698194 0.99611902
-4.8447399 6.087894 0.94165897
-2.19631 3.882694 1.5027291
-1.44125 3.3397939 -0.42337099
-1.5401 3.352994 -0.459481
3.99315 3.3165939 1.556949
-3.6832299 8.3109941 -6.6025209
-3.74316 8.4012938 -6.6245909
-3.81428 8.4728937 -6.6519709
-3.8965099 8.5235939 -6.6811509
-3.98367 8.5590944 -6.7139211
-4.0693002 8.5709944 -6.7327008
-1.4623801 3.3658941 0.011819
-1.0376 2.837894 1.649189
-4.7342 6.0902939 0.98004901
-2.25667 3.9731939 1.479099
-1.63782 3.3686941 -0.49633101
-1.73454 3.3837941 -0.53328103
-3.6359601 8.0815945 -6.4408908
-3.68682 8.1895943 -6.4591708
-3.74087 8.2957935 -6.4787612
-3.80233 8.3786936 -6.5001912
-3.8713 8.4563942 -6.5250611
-3.9451101 8.5209942 -6.553041
-4.0276098 8.5681944 -6.5835309
-4.1201701 8.5921936 -6.6171608
-5.9036102 2.8658941 -1.166811
-1.82701 3.407794 -0.56768101
-1.91239 3.4454939 -0.60115099
-1.13108 2.8676939 1.6176389
-2.3182199 4.0620942 1.454739
-6.5054102 2.0891941 3.140959
-3.6435599 7.9519939 -6.2987208
-3.6905799 8.0691938 -6.3157911
-3.7443099 8.1687937 -6.335021
-3.80229 8.2658939 -6.356081
-3.8630099 8.3548937 -6.3777208
-3.92994 8.4327936 -6.4021611
-3.99983 8.504694 -6.4267011
-4.0810199 8.5588942 -6.4544411
-4.15907 8.6042938 -6.484211
-4.27248 8.6206942 -6.5343509
-4.35992 8.6095943 -6.5466008
1.43446 3.392194 1.062119
-1.83011 3.5117941 0.90807903
-5.92275 5.7800941 0.42540899
-2.37954 4.1511941 1.430519
-3.87872 5.930594 -0.60619098
-3.3759201 5.8640938 2.1896091
-3.6966701 7.9392939 -6.173171
-3.7462499 8.0491943 -6.190371
-3.80323 8.1469936 -6.211081
-3.86429 8.2354937 -6.233181
-3.93278 8.3116941 -6.2589211
-3.99476 8.3992939 -6.2812409
-4.0644798 8.4706936 -6.305531
-4.13974 8.5339937 -6.3317809
-4.2213001 8.5805941 -6.3593011
-4.3067999 8.617794 -6.3873711
-4.4295402 8.5981941 -6.443531
-4.50421 8.5836945 -6.4602509
-3.04335 6.0038939 0.85465902
-0.77673 2.606694 1.896909
-3.1893499 5.9747939 1.527589
-0.64946997 2.8953941 1.344569
-4.1229901 5.964294 2.071759
1.31389 3.3657939 1.019109
-3.6968 7.8167939 -6.0302911
-3.7512901 7.925694 -6.0483508
-3.8055401 8.0265942 -6.067111
-3.86536 8.116394 -6.0883708
-3.9266901 8.2046938 -6.110621
-3.9965601 8.2791939 -6.136951
-4.0641599 8.3562937 -6.1622009
-4.1340599 8.4271936 -6.1866608
-4.2060299 8.4959936 -6.2125812
-4.2822499 8.5579939 -6.2392812
-4.3709798 8.600194 -6.272181
-4.4798598 8.5864944 -6.3147011
-4.58954 8.5716944 -6.3622608
2.7987299 2.6227939 2.7281389
-2.7176499 5.8278942 0.68496901
-2.99668 5.9563942 1.306119
1.6398 8.4255943 -3.851851
-6.5948701 2.764394 2.433049
-5.0397701 6.309494 -3.1853211
-3.7323799 6.0925941 0.89750898
-2.7237999 5.7951941 0.97343898
1.19357 3.339994 0.97548902
-2.3540699 3.9701941 1.738219
-5.2604699 5.4866939 2.741889
-0.93127 3.0883939 1.093219
2.0863299 0.28805399 4.3052192
-3.7498801 7.8044939 -5.9044409
-3.8038099 7.9068942 -5.9223909
-3.86485 7.9970942 -5.9433112
-3.9252501 8.0934944 -5.965251
-3.9942999 8.168294 -5.9917908
-4.0603099 8.2471943 -6.015451
-4.1297102 8.3187943 -6.0394011
-4.1987 8.3934937 -6.0659809
-4.27531 8.4523935 -6.0936208
-4.3519802 8.511694 -6.1209512
-4.43929 8.5574942 -6.1507311
-4.5254002 8.5782938 -6.1784811
-4.6756101 8.5433941 -6.2540512
-4.7372699 8.5267944 -6.2617712
-3.7672701 5.6906939 2.6501589
1.0791301 3.3211939 0.93385899
-1.54213 2.7795939 1.617009
-2.7421401 5.8978939 0.53057897
-4.6385102 5.766994 2.4949491
-3.6068001 5.5842938 2.7107489
-4.2476201 5.7982941 2.4765091
-4.8707399 5.8425941 2.260159
-5.5929399 5.7141938 2.022119
-1.5553401 3.3916941 -0.022551
-1.6438 3.424494 -0.054611001
-2.3317699 4.1519942 1.300959
-1.72847 3.464994 -0.088041
0.084190004 2.7765939 1.462839
-5.4651999 5.751194 2.063659
-1.81501 3.514394 -0.119411
-5.8421998 5.7508941 0.15982901
-1.87713 3.5835941 -0.146631
-1.9425 3.6624939 -0.17230099
0.95286 3.2863939 0.889229
-1.7043 7.2162938 -0.56044102
-5.0145898 5.8857942 2.0601089
-3.4461701 6.071094 0.41965899
-4.26158 6.0161939 1.875309
-4.1571102 6.0108938 1.9121391
-1.8145 7.2198939 -0.59306097
-1.92195 7.214694 -0.635571
1.60694 8.604394 -3.761651
1.53956 8.6915941 -3.7768011
-6.0274801 4.3903942 -0.27546099
-3.5228601 6.0816941 0.97187901
-2.84657 5.8060942 1.6533591
-2.58162 4.1332941 1.946249
-4.50734 6.0947938 1.350789
-1.06095 7.816494 -1.045031
4.0316701 3.4455941 0.99928898
1.04379 3.3298941 0.050319001
-3.8018401 7.7995939 -5.7783308
-3.86006 7.891994 -5.798171
-3.9263599 7.9718938 -5.8217311
-3.9926801 8.0511942 -5.8450112
-4.0573101 8.1383944 -5.8682609
-4.1254902 8.2095938 -5.8923011
-4.1972599 8.278594 -5.9181609
-4.2709498 8.3436937 -5.9465108
-4.3443098 8.4088936 -5.9745011
-4.42558 8.4596939 -6.002861
-4.5075202 8.5147943 -6.0302811
-4.5982199 8.5351944 -6.0586109
-4.7234602 8.498394 -6.1143608
3.3892801 0.92349398 -3.0049009
-2.9187701 5.8742938 1.6259789
-3.89428 6.0125942 1.858579
-4.3741899 6.052494 -0.057071
4.6409798 2.9117939 1.794979
-4.6804099 6.1010938 0.85304898
5.0885701 -0.373786 -3.1795509
-2.9071801 5.9397941 1.043429
-0.70204002 2.772594 1.623539
-2.61112 5.7373939 0.58011901
-4.4344902 5.8746939 -5.4861512
-4.64147 5.884994 -4.0856709
3.0856199 3.3688941 1.8028491
-3.71913 6.0995941 1.192149
-2.87569 5.9441938 0.62762898
-4.5032301 5.8772941 -5.1845908
-3.67787 5.651494 -1.256471
-2.8169401 5.9606938 0.50301898
-3.73522 5.743794 -1.280431
2.2604201 0.44033399 4.0653591
2.4596 0.407864 4.1359792
2.55901 0.394124 4.1722288
-2.1076701 3.8660941 1.240829
-1.99202 3.569994 1.4368089
-5.73879 5.8433938 0.34067899
0.06893 2.999094 0.866669
-4.6080499 6.0894942 0.295919
1.01174 0.179014 4.0853291
-3.8020501 5.822794 -1.305451
-3.8685701 5.9015942 -1.3307509
-3.95999 6.0873942 0.52701902
-4.05653 5.4117942 3.0061491
-3.93592 6.1077938 0.824929
-3.7085099 5.4810939 2.819159
-4.03724 5.6794939 2.7049689
-4.5433002 5.758594 2.5305691
-5.1858602 5.7478938 2.3048191
-3.48945 6.077394 0.548859
2.97668 0.392634 4.023489
-5.7017002 5.8249941 0.207169
-5.5559301 5.8874941 0.257599
-5.42487 5.9361939 0.30294901
-5.1723299 6.011694 0.39020899
-5.0518098 6.039794 0.432019
-3.92734 5.9985938 -1.353261
-3.9951999 6.0715942 -1.378721
-2.31304 6.6031942 -0.19328099
-4.0629401 6.148694 -1.404461
-5.13866 5.9900942 1.574059
-4.6855001 6.0262942 1.727659
-2.46668 4.0495939 1.843659
-2.5257699 4.1464939 1.818849
-4.1290102 6.2278938 -1.429641
1.6170599 8.5056944 -3.6158509
1.57774 8.6353941 -3.6312809
1.53332 8.7605944 -3.658401
2.1353099 2.585794 -2.1284511
-4.2762198 4.8634939 -2.3954711
-2.18928 6.7542939 -0.29485101
0.92796999 3.2147939 1.172649
-2.5230501 4.0358939 1.970809
-5.68541 5.8991938 0.945409
-4.19872 6.2995939 -1.4547811
-3.6849301 7.4876938 -5.594121
-3.73808 7.5897942 -5.6124711
-3.7941899 7.6906939 -5.6314611
-3.8564701 7.7797942 -5.653151
-3.9200699 7.867394 -5.6757908
-3.9854701 7.9480939 -5.6984611
-4.0504599 8.0291939 -5.7210708
-4.11975 8.105094 -5.7467909
-4.1928701 8.1689939 -5.771451
-4.2645202 8.2404938 -5.7999411
-4.3401499 8.3007936 -5.8268609
-4.4172802 8.3589935 -5.8552809
-4.49437 8.4162941 -5.8837209
-4.5810299 8.4623938 -5.911931
-4.6718001 8.4904938 -5.9430709
-4.7938099 8.4548941 -5.9954309
-4.9156299 8.4167938 -6.0552912
-5.54178 5.8251939 1.735409
-6.1040702 5.6034942 1.559029
3.9058101 3.3551941 1.525139
-4.2713099 6.3665938 -1.482321
-6.6314001 2.767894 2.9327991
-5.1287198 5.8637938 2.0189891
-2.2931299 6.7637939 -0.33061099
-4.4109402 5.4485941 3.0300291
-4.3186498 5.6460938 2.756639
0.2615 -0.46668601 4.1621089
1.35917 0.22585399 4.2045088
-2.16905 3.9555941 1.216809
-4.2192202 5.6292939 2.790859
-4.3025999 6.1148939 0.840289
3.65382 2.988394 2.2953489
-0.18118 2.541394 1.8152291
-0.071719997 2.545994 1.853949
-4.3590398 6.4050941 -1.5138609
-4.44768 6.4437938 -1.544801
-5.27981 5.6641941 2.426609
-4.1177001 7.0052938 -2.871901
-4.9662499 5.777894 2.378119
1.85338 0.48299399 3.9215491
2.0629499 0.471544 3.9951091
-3.4835601 6.0073938 1.713249
-3.5773001 6.0338941 1.679559
2.8193901 0.27903399 4.265429
-1.8932101 3.1422939 1.483179
-5.2123899 5.8065939 2.144779
-5.5650601 5.9417939 0.69275898
-2.9574499 5.915494 1.466169
3.6663401 3.5654941 0.865049
-0.90797001 3.0179939 1.249929
-4.6118002 2.2726941 -1.6827511
