# .PCD v0.7 - Point Cloud Data file format
VERSION 0.7
FIELDS x y z rgb
SIZE 4 4 4 4
TYPE F F F F
COUNT 1 1 1 1
WIDTH 795
HEIGHT 1
VIEWPOINT 0 0 0 1 0 0 0
POINTS 795
DATA ascii
15.19961348 0.7219014157 2.796493045 3.573311084e-43
16.58203 -5.497204 3.513757 3.573311084e-43
24.25649038 2.957421848 1.992872418 3.573311084e-43
19.31770945 3.164235818 -0.1006986364 3.573311084e-43
26.23223236 1.769477146 0.9044475393 3.573311084e-43
23.21444662 3.607763118 -0.07852247059 3.573311084e-43
18.05425191 3.456462085 -0.8408195106 3.573311084e-43
16.426438 -5.50075625 0.759398 3.573311084e-43
17.18566906 5.794351647 0.905569 3.573311084e-43
13.41459069 2.766442611 2.896889417 3.573311084e-43
13.73586 4.604344 0.427209 3.573311084e-43
19.20598421 3.020133474 -1.0975635 3.573311084e-43
17.606185 2.167994 2.377664 3.573311084e-43
22.19257707 2.621056069 2.725675552 3.573311084e-43
25.21595151 2.807037011 0.9177739462 3.573311084e-43
20.18168864 3.098938068 -0.09159710169 3.573311084e-43
19.49795429 0.4180454286 3.470047571 3.573311084e-43
16.20945534 5.548581931 2.749688138 3.573311084e-43
22.23961265 3.386232235 1.677347529 3.573311084e-43
26.85746154 0.6465822692 0.8331820769 3.573311084e-43
15.1126641 5.880359385 -1.094935231 3.573311084e-43
27.37472764 -2.123907273 0.9658677273 3.573311084e-43
17.19338218 -6.102141636 1.920743182 3.573311084e-43
26.03822986 1.672534541 1.833597784 3.573311084e-43
14.39715019 1.830253259 -0.9726869259 3.573311084e-43
14.785935 1.098344 -1.529221 3.573311084e-43
20.19376031 1.707992462 2.846794692 3.573311084e-43
24.3162481 -0.07608306897 -3.344176 3.573311084e-43
16.17896854 6.785161416 -3.101189202 3.573311084e-43
15.08141186 2.842019581 4.338520628 3.573311084e-43
20.013751 6.153894 -1.7973345 3.573311084e-43
14.65332 0.3279473333 2.470699 3.573311084e-43
27.15892 -3.177854072 -1.193637988 3.573311084e-43
26.64484722 1.100482889 0.983119 3.573311084e-43
16.21722341 -3.067150118 1.905842765 3.573311084e-43
13.82003528 3.975127333 -0.2751726667 3.573311084e-43
23.01414429 -5.576614571 2.502291857 3.573311084e-43
25.17717333 1.75801469 -2.033075253 3.573311084e-43
15.18373667 5.170794 3.294876222 3.573311084e-43
27.18028286 -0.2029262857 -0.1278002857 3.573311084e-43
19.21441011 7.730041191 -1.170601 3.573311084e-43
26.8297063 0.5408425185 -0.9390195185 3.573311084e-43
14.20121565 3.727469 3.905875304 3.573311084e-43
13.70047667 -0.3397776667 0.6493406667 3.573311084e-43
26.65310538 1.194078615 -0.1763786923 3.573311084e-43
23.22146985 3.590863118 0.9239820882 3.573311084e-43
22.2179092 -5.6365896 -1.081376 3.573311084e-43
20.31968625 7.09316275 -2.65548725 3.573311084e-43
26.10674776 0.7482067632 -2.003696263 3.573311084e-43
21.62805 -3.764136 4.443979 3.573311084e-43
13.55896803 4.825566727 0.899089 3.573311084e-43
26.735005 -2.837596 -1.671276 3.573311084e-43
17.1788916 -2.292858267 3.130380467 3.573311084e-43
26.48771188 -1.28272225 -2.267500375 3.573311084e-43
17.1438375 1.974094 -2.399718708 3.573311084e-43
15.17845188 -0.2016505 -2.244336375 3.573311084e-43
24.936745 0.4821744167 3.5686465 3.573311084e-43
16.36760872 6.815688872 -4.082072282 3.573311084e-43
14.14106864 1.639362182 1.922104455 3.573311084e-43
16.22055246 6.090984769 0.9167593077 3.573311084e-43
14.17310407 5.816144847 0.9252361186 3.573311084e-43
15.22140821 4.672817881 3.72372706 3.573311084e-43
20.23666211 -0.3188610704 -4.101240718 3.573311084e-43
21.05495364 -5.177418955 -3.700734182 3.573311084e-43
23.16646147 -5.253532667 3.760096867 3.573311084e-43
14.17865869 5.609087443 1.884915557 3.573311084e-43
17.24588455 3.807825818 -1.274481909 3.573311084e-43
15.13897811 7.805248955 -5.107148117 3.573311084e-43
19.9554452 -1.203190267 3.962183267 3.573311084e-43
23.20233162 3.116283189 2.174887378 3.573311084e-43
21.56512 0.2878773333 -3.688881 3.573311084e-43
14.24072814 5.644849932 -0.06608930508 3.573311084e-43
21.22234446 -5.66400225 1.913226857 3.573311084e-43
17.87339565 4.845650452 -0.1448469677 3.573311084e-43
20.23026304 1.565076609 -2.808024478 3.573311084e-43
15.23950633 3.794610456 4.197521025 3.573311084e-43
21.11633755 6.766426653 -2.133491714 3.573311084e-43
18.09153578 2.73202653 1.912554422 3.573311084e-43
18.14344525 3.670323293 -0.09381887879 3.573311084e-43
27.27481886 -1.179504429 -0.126559 3.573311084e-43
13.53391182 2.043357636 2.898437409 3.573311084e-43
13.48639475 2.741789082 -0.05309968852 3.573311084e-43
17.51869317 4.841946381 0.927663127 3.573311084e-43
20.22223882 7.734291059 -2.847225412 3.573311084e-43
15.32980379 2.740787103 4.440449 3.573311084e-43
15.42030418 -3.021719273 0.9009693636 3.573311084e-43
22.19161684 -5.249442582 3.900187734 3.573311084e-43
17.18213744 4.744487023 1.954352605 3.573311084e-43
19.21674883 7.753697896 -2.167804766 3.573311084e-43
22.18411033 1.818841541 3.245250148 3.573311084e-43
18.04558105 3.745508474 0.8597662368 3.573311084e-43
18.21082968 6.748748839 -0.3738880968 3.573311084e-43
28.10353744 -3.240447628 1.801005628 3.573311084e-43
24.19182303 1.771771632 2.929111105 3.573311084e-43
26.89984917 0.696159 -0.128102 3.573311084e-43
15.40794635 6.749162919 -5.036777757 3.573311084e-43
23.25594057 -6.04004 3.078190714 3.573311084e-43
18.32634979 7.496191917 -1.066454958 3.573311084e-43
26.89652356 -0.2531507458 1.774111034 3.573311084e-43
26.63217524 -0.130383619 2.247288048 3.573311084e-43
20.03834 6.085221273 -1.293665242 3.573311084e-43
27.787445 -4.765671 -0.718021 3.573311084e-43
17.21859625 4.741290591 -1.048524977 3.573311084e-43
20.27627784 0.5162629189 3.505490622 3.573311084e-43
16.27523901 4.749159432 2.995593444 3.573311084e-43
18.40299267 -1.262343 3.365975333 3.573311084e-43
19.20182413 6.800567333 -1.0008898 3.573311084e-43
28.210375 -2.393423375 -0.08025 3.573311084e-43
16.31987167 -0.3283300476 3.545853286 3.573311084e-43
16.33379345 -6.01745031 0.8195836552 3.573311084e-43
16.20276221 6.031344 -0.1006723235 3.573311084e-43
24.58746 -4.623751 3.339044 3.573311084e-43
25.1594759 -0.2519722821 3.71278541 3.573311084e-43
25.35142976 0.9844947317 -2.431995634 3.573311084e-43
19.75909714 8.092608286 -1.463432429 3.573311084e-43
26.67447333 0.1372073333 -1.541464333 3.573311084e-43
26.99191603 -0.2314201176 -1.112906294 3.573311084e-43
15.28909678 6.610971966 -2.143178458 3.573311084e-43
15.08199968 6.816266043 -3.057672828 3.573311084e-43
25.78264 -1.835426 3.425219 3.573311084e-43
13.48762646 3.776929443 0.8831760886 3.573311084e-43
21.17648414 1.751888286 3.117506857 3.573311084e-43
15.03000701 5.773525169 -2.045046584 3.573311084e-43
13.94440675 0.772146 -0.10522075 3.573311084e-43
16.35835414 5.818944 -2.077529857 3.573311084e-43
25.9637804 0.6397776 2.7036494 3.573311084e-43
13.98491581 1.639896326 -0.201811 3.573311084e-43
26.37223897 -2.225505138 -2.208359103 3.573311084e-43
21.20141305 -0.3563100678 4.648499 3.573311084e-43
27.24367329 -1.213265342 0.8929713684 3.573311084e-43
24.5204076 3.206058 1.0203062 3.573311084e-43
21.31208826 3.38205487 -0.04964317391 3.573311084e-43
17.26061614 5.998346273 0.1753812727 3.573311084e-43
19.60866667 8.351627333 -1.494754333 3.573311084e-43
16.23046194 1.661574597 2.995929597 3.573311084e-43
19.82836 8.354460667 -1.502467667 3.573311084e-43
16.37936943 3.802033623 3.085774849 3.573311084e-43
23.91378 3.339730364 1.568009 3.573311084e-43
19.17227064 6.049202511 -1.86609866 3.573311084e-43
22.20819371 3.540160129 0.9170130323 3.573311084e-43
15.23514179 6.018390429 -0.07855278571 3.573311084e-43
20.21503132 -5.687090717 -1.078398736 3.573311084e-43
22.17836152 3.103906121 2.167610818 3.573311084e-43
20.794118 6.532054 -1.489223 3.573311084e-43
16.21673594 5.972280957 1.910079 3.573311084e-43
18.28309474 -6.040993193 -3.064488368 3.573311084e-43
28.40910306 -4.204942935 -0.1389908387 3.573311084e-43
15.22796 5.946989 1.9141795 3.573311084e-43
21.53099105 8.021846632 -3.734747316 3.573311084e-43
17.18040652 -5.322257515 3.650661273 3.573311084e-43
17.22947691 5.770763118 -1.128850706 3.573311084e-43
26.41498143 0.8283719221 1.986076013 3.573311084e-43
18.05589485 -5.421720545 3.517208394 3.573311084e-43
21.49372111 3.319771778 -0.7399943333 3.573311084e-43
18.24558886 -4.987531227 3.247429 3.573311084e-43
18.15023759 -4.169928911 2.914022544 3.573311084e-43
20.17571567 -0.1904365556 3.820993778 3.573311084e-43
13.89069852 0.776789679 0.8990239383 3.573311084e-43
14.02246687 4.788249224 -0.1448926418 3.573311084e-43
15.34413528 -1.989022667 -1.937690722 3.573311084e-43
21.18632627 2.953210949 1.978978492 3.573311084e-43
13.61183545 4.830298545 1.699139682 3.573311084e-43
13.82011943 -0.2372087143 -0.1005277143 3.573311084e-43
22.9978337 -5.638491185 -1.915408778 3.573311084e-43
25.13744459 1.661487443 2.703143426 3.573311084e-43
15.37651579 4.86805014 -1.97932486 3.573311084e-43
25.23941219 -3.221233808 -3.207505521 3.573311084e-43
19.047358 6.458814 -0.523313 3.573311084e-43
21.09143483 8.760432333 -3.11844675 3.573311084e-43
26.17964766 -5.248335221 -1.222144117 3.573311084e-43
25.49390774 2.049074645 2.174106742 3.573311084e-43
15.0420863 6.741704959 -4.032427027 3.573311084e-43
19.13424217 2.588074 -1.884427833 3.573311084e-43
26.77523667 0.4668365 1.5635265 3.573311084e-43
24.22207264 -1.201428917 -3.840460583 3.573311084e-43
15.17697863 1.843601368 3.960692368 3.573311084e-43
24.86114889 -4.980897667 -2.816752667 3.573311084e-43
16.2537225 2.733532235 -1.789664971 3.573311084e-43
16.17638514 0.7631025714 3.174137143 3.573311084e-43
17.08261909 -4.205208929 -0.02756372727 3.573311084e-43
21.97067647 -1.994496588 -4.630414529 3.573311084e-43
15.6487528 6.734442 -5.7227754 3.573311084e-43
15.23026215 7.516220154 -4.133505769 3.573311084e-43
14.642324 -1.011906 2.514673 3.573311084e-43
13.79717577 4.050024769 3.151137846 3.573311084e-43
25.12270934 2.581833474 1.860813605 3.573311084e-43
23.21155012 1.746947012 3.167534181 3.573311084e-43
20.99307333 1.081599556 3.368417333 3.573311084e-43
25.13294851 -5.170433701 2.918664057 3.573311084e-43
26.62624231 -3.462443692 -1.464499462 3.573311084e-43
24.21786321 -0.1830727901 4.068300111 3.573311084e-43
14.97407447 1.806780842 -1.418378895 3.573311084e-43
23.13418414 0.6012012414 3.756831586 3.573311084e-43
14.92155917 3.825473167 -1.485474333 3.573311084e-43
24.79535 2.324427333 2.481625667 3.573311084e-43
15.43644707 -2.009208927 2.677000707 3.573311084e-43
22.54560818 -5.873517364 0.02666263636 3.573311084e-43
23.19790624 0.7341616471 -3.093589941 3.573311084e-43
24.06429473 3.423979455 0.8715584545 3.573311084e-43
15.21928193 5.527957158 2.835398474 3.573311084e-43
25.091315 -5.869808667 1.772156333 3.573311084e-43
24.19266569 -6.022079103 1.930232103 3.573311084e-43
19.231115 3.073595389 0.9225667778 3.573311084e-43
16.44194083 -2.848561 -1.793589333 3.573311084e-43
23.21242405 3.411745351 1.674166568 3.573311084e-43
14.32500345 0.7865353793 1.901131759 3.573311084e-43
20.20270633 2.603544 1.898338833 3.573311084e-43
16.19724545 -3.461871974 0.9342483506 3.573311084e-43
22.21405593 3.548677051 -0.08217489831 3.573311084e-43
24.41344143 -4.484168857 -3.434466714 3.573311084e-43
13.52961571 3.633638643 1.840874357 3.573311084e-43
22.22325312 2.6913415 -2.024720375 3.573311084e-43
20.24321225 0.787518625 -3.213147375 3.573311084e-43
18.88404687 6.00557525 -0.48037225 3.573311084e-43
27.14579022 -3.211279667 2.027233556 3.573311084e-43
19.17581571 -2.192965857 3.251816571 3.573311084e-43
26.6697 -1.722306 2.415869 3.573311084e-43
16.28752979 7.776029789 -6.869529211 3.573311084e-43
14.46456813 5.40233775 2.657575875 3.573311084e-43
15.98456667 6.5396315 -2.172269542 3.573311084e-43
23.15752273 1.092671273 3.330806273 3.573311084e-43
26.21041907 -2.245548791 2.922606907 3.573311084e-43
14.31989592 0.7614868169 -1.063304521 3.573311084e-43
20.24068076 6.722370087 -2.135903935 3.573311084e-43
19.87219559 -1.165029529 -4.417604824 3.573311084e-43
18.18289878 5.817761073 -0.1312464878 3.573311084e-43
13.92799417 1.556930111 0.9617848333 3.573311084e-43
17.30423114 6.519168286 -0.3023258571 3.573311084e-43
25.05791345 -5.926937724 -0.9171547931 3.573311084e-43
24.21148321 -6.064022071 -1.075439393 3.573311084e-43
26.52516923 0.8792405385 -1.224451577 3.573311084e-43
24.18231852 0.7034946557 3.701099328 3.573311084e-43
14.28017849 3.729755644 -1.043577986 3.573311084e-43
16.21438838 1.755541297 -2.137224784 3.573311084e-43
20.24969787 8.665298255 -2.125219723 3.573311084e-43
17.17551091 1.762106987 2.754762896 3.573311084e-43
26.25406611 -1.22458137 2.946623537 3.573311084e-43
15.16566946 -0.2446037174 3.002878783 3.573311084e-43
18.94569514 -5.060156541 3.220394946 3.573311084e-43
13.55526207 2.104904345 1.881471759 3.573311084e-43
15.23746685 0.781413589 -2.009521274 3.573311084e-43
19.30830327 -5.939977818 3.809727909 3.573311084e-43
20.09709857 -4.992275762 4.226908524 3.573311084e-43
20.57465 -0.5386985 4.522189 3.573311084e-43
20.27210881 -5.420273857 4.478122333 3.573311084e-43
21.18014292 -5.1906685 4.182664694 3.573311084e-43
21.3087319 3.379498762 0.8507061429 3.573311084e-43
14.03811797 -1.213412622 0.9121875135 3.573311084e-43
24.663865 1.195144 -2.548556 3.573311084e-43
16.17332916 7.782906632 -6.119479105 3.573311084e-43
17.03823981 3.644392113 2.699452585 3.573311084e-43
14.8759 3.364469 4.4294265 3.573311084e-43
17.44861808 -4.235334219 1.942672562 3.573311084e-43
15.95935562 3.67671275 3.744065667 3.573311084e-43
13.37178429 2.762955429 1.883457571 3.573311084e-43
18.30662906 6.773395887 -1.848165906 3.573311084e-43
19.19018783 2.604770812 1.853652623 3.573311084e-43
19.08948767 -4.903574605 -3.22701007 3.573311084e-43
16.09264409 5.820375818 -5.076478273 3.573311084e-43
19.24118614 -0.2256165714 -3.283796143 3.573311084e-43
14.23039167 1.949678848 3.733954909 3.573311084e-43
16.17188258 6.751295667 -6.167132583 3.573311084e-43
22.98739036 -4.002828143 4.474535071 3.573311084e-43
15.96974 1.984924 3.8728425 3.573311084e-43
18.83269824 3.303376353 -0.01864982353 3.573311084e-43
19.19292944 2.125360667 2.321421222 3.573311084e-43
13.77377839 4.804194 2.135601258 3.573311084e-43
21.36178918 -3.150292735 4.522246143 3.573311084e-43
20.20867017 2.900514 -1.0769765 3.573311084e-43
27.12308014 -0.2057262857 0.8713682857 3.573311084e-43
22.23457733 0.7340050465 -3.260518674 3.573311084e-43
19.20641397 5.76253759 -1.075670359 3.573311084e-43
15.84778545 -0.133866 -2.548361909 3.573311084e-43
18.65998 -5.646156 -3.663541 3.573311084e-43
22.22349083 0.2539356667 4.342260667 3.573311084e-43
27.01410259 -2.253471185 1.853438259 3.573311084e-43
21.764736 7.612407333 -3.307455333 3.573311084e-43
23.21936929 2.706091619 -2.045732548 3.573311084e-43
17.17520208 -4.820771833 3.179107333 3.573311084e-43
16.20654125 5.819913318 -1.090341568 3.573311084e-43
17.93015029 -0.2288157143 3.504167571 3.573311084e-43
22.2252642 0.6993825714 3.704216679 3.573311084e-43
17.67293778 4.773605111 -0.09009155556 3.573311084e-43
25.53833722 2.154471778 -1.328310444 3.573311084e-43
19.25177093 0.7960548 -3.0452434 3.573311084e-43
22.17619743 -1.231444143 4.855157714 3.573311084e-43
17.266333 -1.770899 3.440529 3.573311084e-43
23.22899654 -2.204073308 4.719823359 3.573311084e-43
17.16752645 -5.066067774 0.9216062581 3.573311084e-43
18.16899279 1.670810393 2.732182607 3.573311084e-43
14.88703481 -2.546857481 -0.1247176667 3.573311084e-43
27.071363 -1.196320571 -1.124297 3.573311084e-43
16.05062629 8.448014 -6.775852429 3.573311084e-43
23.07319692 -6.073897538 -0.1652112564 3.573311084e-43
26.17800674 -5.230634372 1.929931907 3.573311084e-43
27.19951 -5.366789721 -0.08455983721 3.573311084e-43
24.3532375 -5.974804125 -0.4521185 3.573311084e-43
25.17370542 -6.035317042 -0.04587058333 3.573311084e-43
18.16743327 5.587883796 -1.363491204 3.573311084e-43
24.33281937 1.14218775 3.298640875 3.573311084e-43
24.429159 -2.30862525 4.273435 3.573311084e-43
21.16521971 -4.270450493 -4.111704333 3.573311084e-43
25.21296663 -0.212556241 -3.044109072 3.573311084e-43
17.516522 -4.1525355 -1.696885 3.573311084e-43
14.16819795 2.773138872 -1.104717795 3.573311084e-43
22.17614943 -2.201960286 4.874528143 3.573311084e-43
24.83144571 -2.372261714 -3.617238143 3.573311084e-43
24.10369623 -5.197919115 3.550815557 3.573311084e-43
19.18047073 1.630888545 2.701125 3.573311084e-43
17.0376 5.672524 1.897726571 3.573311084e-43
14.59530556 -0.2386776667 -1.725344333 3.573311084e-43
25.29833333 0.84019525 3.093328444 3.573311084e-43
16.00784657 0.7870585714 -2.428120143 3.573311084e-43
13.7063 4.408194 2.423789 3.573311084e-43
23.20310702 2.602401018 2.693891105 3.573311084e-43
17.49514161 3.8916315 2.032536321 3.573311084e-43
20.31842872 -4.349222383 3.70055517 3.573311084e-43
21.16417288 -4.210821479 4.083550781 3.573311084e-43
16.68712 1.306394 -2.592421 3.573311084e-43
22.05695788 -4.413165091 4.271538394 3.573311084e-43
14.19185462 2.810044 3.999096692 3.573311084e-43
20.40810024 8.64582019 -2.848342429 3.573311084e-43
18.1596 -3.201281385 -2.218865923 3.573311084e-43
23.31941886 -4.325558727 4.296769227 3.573311084e-43
23.82781818 -2.925001455 4.475909909 3.573311084e-43
24.15114915 -4.174190512 3.966334244 3.573311084e-43
19.14021254 0.8050141587 3.170069 3.573311084e-43
27.09562087 -5.007592087 1.799403783 3.573311084e-43
16.54195 4.801550098 -1.417576854 3.573311084e-43
24.20901395 0.7887421395 -2.963549256 3.573311084e-43
15.79648 6.329160667 -1.505284333 3.573311084e-43
16.27891247 5.714712182 -4.118264636 3.573311084e-43
15.47297917 7.359352333 -3.404850167 3.573311084e-43
17.38672353 -4.526280412 2.694445176 3.573311084e-43
22.17614229 -3.187852 4.694062286 3.573311084e-43
24.93417 -3.974842552 3.616066586 3.573311084e-43
19.20376924 -4.225284101 2.994520772 3.573311084e-43
21.25287711 7.77168243 -3.065284471 3.573311084e-43
15.48487182 6.349757636 -1.422630091 3.573311084e-43
26.07138 1.728473487 -1.059780359 3.573311084e-43
15.91371229 7.447434 -4.151598143 3.573311084e-43
16.16342293 4.815100098 -1.954729537 3.573311084e-43
16.02048314 -1.423207714 3.308003 3.573311084e-43
14.76525889 1.028894 2.348812333 3.573311084e-43
15.32563765 7.872380765 -5.928204382 3.573311084e-43
13.26247971 2.759734 0.8829181429 3.573311084e-43
27.97701091 -2.641300545 -0.6798973636 3.573311084e-43
16.43858206 5.730592529 -3.101227029 3.573311084e-43
20.16826828 3.008169862 0.9125457241 3.573311084e-43
26.61616125 -5.6655635 -0.19241225 3.573311084e-43
20.4877737 -3.226486556 3.736762148 3.573311084e-43
26.34949312 -4.296529125 2.294519625 3.573311084e-43
23.10145585 -5.627831854 2.013998268 3.573311084e-43
27.21576402 -4.278023439 2.209507659 3.573311084e-43
13.56669773 3.610955364 0.004118772727 3.573311084e-43
21.26022368 0.6324051765 3.586350618 3.573311084e-43
17.19254317 2.754448878 2.84124961 3.573311084e-43
25.77525769 2.347463231 0.8681466923 3.573311084e-43
20.26521097 -5.634948581 2.709013839 3.573311084e-43
24.61178 -0.781091 -3.556616 3.573311084e-43
25.73084 2.298294 1.487809 3.573311084e-43
23.40232861 -5.891263222 1.716942333 3.573311084e-43
20.03627712 -4.050707346 3.049066885 3.573311084e-43
22.28275432 -3.990128973 4.514310892 3.573311084e-43
24.20486671 -5.205042579 -3.185096789 3.573311084e-43
24.32867073 1.928990364 -2.394745 3.573311084e-43
13.54724037 2.039668074 0.02984492593 3.573311084e-43
17.21049545 -5.941426682 3.663704455 3.573311084e-43
23.141311 -5.9930826 -3.0446218 3.573311084e-43
21.23897562 2.464890875 2.668159937 3.573311084e-43
26.32578064 -0.1983442051 -2.175839462 3.573311084e-43
26.80043786 -0.4463881429 -1.767298143 3.573311084e-43
23.19649189 -3.185104378 4.654457649 3.573311084e-43
14.4569788 4.493906 3.656407 3.573311084e-43
25.17623301 -4.174711205 -3.093810452 3.573311084e-43
19.89213333 2.157977333 2.336754 3.573311084e-43
17.27742217 -2.974189261 2.626675522 3.573311084e-43
15.22828557 6.079194 0.919671459 3.573311084e-43
24.00768417 -5.859926 3.514148167 3.573311084e-43
26.80532955 -1.128035091 -1.799783727 3.573311084e-43
17.37115808 6.625688231 -0.9676423462 3.573311084e-43
24.08489828 3.429425034 -0.06999341379 3.573311084e-43
15.18603256 -1.219239667 2.896391556 3.573311084e-43
20.82130545 3.237484909 -0.2357382727 3.573311084e-43
25.13972089 -2.208908658 3.786619759 3.573311084e-43
14.72809 1.348394 2.406669 3.573311084e-43
19.563285 8.377494 -1.941926833 3.573311084e-43
16.93841333 -4.833121833 0.1928831667 3.573311084e-43
23.219476 3.435054 -0.9214642 3.573311084e-43
20.94450698 -3.366781581 4.247747837 3.573311084e-43
18.17654722 2.201199556 2.270751222 3.573311084e-43
20.4685227 -2.180707892 -4.719187757 3.573311084e-43
16.31139939 -6.031511918 1.973375531 3.573311084e-43
23.62000667 -3.584586 4.389845667 3.573311084e-43
24.26174086 -3.241433857 4.149203 3.573311084e-43
19.22528855 6.762147226 -2.285048903 3.573311084e-43
18.1526167 -3.209241227 2.993815136 3.573311084e-43
19.17613457 -3.188006714 3.117781857 3.573311084e-43
27.10766974 -5.000983105 -1.031482316 3.573311084e-43
20.02252271 -3.224171763 3.078673915 3.573311084e-43
24.08036897 2.495914513 2.586538744 3.573311084e-43
17.87283281 3.533622125 1.734363062 3.573311084e-43
14.48190143 -2.02093727 0.8618550317 3.573311084e-43
21.75458818 7.938594 -3.703773727 3.573311084e-43
28.01508667 -4.122681417 -0.96752725 3.573311084e-43
18.21503583 2.738655111 -1.980319889 3.573311084e-43
15.644013 6.037784 -5.728178 3.573311084e-43
15.39197022 3.684991826 -1.692999478 3.573311084e-43
19.17465745 -6.029915787 1.93182517 3.573311084e-43
17.98389485 6.936600061 -1.109887061 3.573311084e-43
20.42246367 -1.214521306 4.609808184 3.573311084e-43
21.18176704 -5.695540074 0.9101106667 3.573311084e-43
20.18123745 6.545076353 -1.226044333 3.573311084e-43
26.601825 -3.3186865 2.2858835 3.573311084e-43
13.74276111 2.803549556 -0.5428198889 3.573311084e-43
21.176294 -1.234076286 4.824016143 3.573311084e-43
16.84667286 -3.614098857 1.10324281 3.573311084e-43
18.243256 -0.2430465714 -3.119523714 3.573311084e-43
19.24641762 2.067486857 -2.385971952 3.573311084e-43
17.50249974 -4.203354333 0.9073100256 3.573311084e-43
22.20146391 -5.627228174 -2.014559696 3.573311084e-43
17.18688013 -3.361191067 2.022222467 3.573311084e-43
18.36381719 6.027790875 -1.729410688 3.573311084e-43
18.999842 -1.080996 3.460062 3.573311084e-43
25.13365241 2.610259823 -1.034726063 3.573311084e-43
20.86613533 3.202940667 1.082790333 3.573311084e-43
16.33940537 -5.320970444 1.986432148 3.573311084e-43
20.12102703 0.9919399459 3.286197919 3.573311084e-43
19.792055 -6.053246 3.397014 3.573311084e-43
17.26942382 -2.413383059 -2.437747765 3.573311084e-43
16.632774 4.057454 -1.566673 3.573311084e-43
15.34605437 5.69621525 -4.0695085 3.573311084e-43
17.2160794 2.67901191 -1.88134309 3.573311084e-43
20.19893788 -5.662607731 -2.102585231 3.573311084e-43
14.19079067 -0.2277084 -1.1179294 3.573311084e-43
21.71814 8.359894 -3.768441 3.573311084e-43
20.25417819 -2.227607928 3.925249602 3.573311084e-43
16.46825686 0.6627817143 -2.687490429 3.573311084e-43
25.96429449 -4.149268857 -1.960846102 3.573311084e-43
16.79832111 5.448871778 2.538024556 3.573311084e-43
19.18173462 -4.230354925 -2.136267882 3.573311084e-43
16.31704305 -0.3052009153 -2.748093373 3.573311084e-43
20.503812 2.319994 2.495341 3.573311084e-43
26.24994624 1.777711647 -0.09276158824 3.573311084e-43
16.19967152 -2.238429043 2.91441813 3.573311084e-43
15.43470905 1.788065429 -1.751197429 3.573311084e-43
17.24278657 -0.2511131429 -3.060273 3.573311084e-43
15.17086667 5.738923167 -3.072771556 3.573311084e-43
22.10378761 -5.680430783 0.9545533478 3.573311084e-43
26.96127761 -1.186531634 1.887420127 3.573311084e-43
15.696835 -1.082411 -2.604401 3.573311084e-43
18.23972214 0.7581414286 -2.989625143 3.573311084e-43
15.17775267 1.395120667 3.032850111 3.573311084e-43
21.21611177 -0.08258334177 -4.189330747 3.573311084e-43
22.19259186 -0.1946766186 -4.249782134 3.573311084e-43
14.49750238 4.724808286 -0.9284262381 3.573311084e-43
21.16994403 -2.216276556 4.646178028 3.573311084e-43
23.962712 -2.211158286 4.513730429 3.573311084e-43
27.20601437 -5.316168083 0.9373023333 3.573311084e-43
16.12487071 2.751953524 3.98768019 3.573311084e-43
15.9594171 -0.07111083871 3.349289323 3.573311084e-43
15.92287692 8.444247846 -6.300584462 3.573311084e-43
16.56571667 -5.906769333 3.557113444 3.573311084e-43
20.58857375 -1.94111975 4.505669 3.573311084e-43
18.42398657 -0.1906357143 3.362303286 3.573311084e-43
18.18181567 -2.249743164 3.280373179 3.573311084e-43
17.64572 2.6851065 2.37441525 3.573311084e-43
23.22123884 -3.265199913 -4.105788391 3.573311084e-43
14.68139667 0.5234873333 -1.652751 3.573311084e-43
19.85455138 -2.273212207 3.231103138 3.573311084e-43
22.1264 1.343794 3.447593444 3.573311084e-43
16.19578046 3.713766308 -1.711253 3.573311084e-43
13.75650429 -0.2066244286 0.9611758571 3.573311084e-43
25.98738119 -1.211833619 -2.773046238 3.573311084e-43
27.989905 -2.584141 1.549629 3.573311084e-43
25.22299195 2.804127333 -0.0804818046 3.573311084e-43
16.40180653 6.798323167 -5.095781972 3.573311084e-43
13.59764455 5.445712182 0.8535553636 3.573311084e-43
23.18043337 -0.2183071579 -3.998049842 3.573311084e-43
15.12895163 -2.303882196 1.972795196 3.573311084e-43
21.23123481 0.7862765974 -3.241045286 3.573311084e-43
21.33564955 7.058019 -2.827950773 3.573311084e-43
23.22494488 -1.230683625 4.738471125 3.573311084e-43
18.73788 3.291494 -0.650431 3.573311084e-43
26.66745556 -2.337306 2.373296778 3.573311084e-43
16.14985254 -6.136972508 -1.109746397 3.573311084e-43
19.66866667 -0.6168293333 -3.752664333 3.573311084e-43
20.748458 8.812084 -2.509762 3.573311084e-43
21.4532059 8.552599128 -3.735568949 3.573311084e-43
24.88779455 2.378984909 -1.720370091 3.573311084e-43
16.28380638 6.937006766 -6.773209936 3.573311084e-43
13.48289843 1.97166851 0.8954095882 3.573311084e-43
15.727655 2.587444 4.422974 3.573311084e-43
14.59535533 -1.862854 1.655233667 3.573311084e-43
18.02633429 -1.796251714 3.446420429 3.573311084e-43
14.828545 2.716024 -1.527153 3.573311084e-43
20.23150053 2.497609789 -1.904012228 3.573311084e-43
15.33454709 -3.009686545 -0.05707336364 3.573311084e-43
14.20522929 1.584476857 2.958370571 3.573311084e-43
17.17674843 -1.185377 3.563079 3.573311084e-43
18.00638475 -1.143354 3.5253135 3.573311084e-43
19.30702975 -1.288883 3.326693 3.573311084e-43
19.71661 -1.624516 3.384909 3.573311084e-43
18.43407067 3.115144 1.086175333 3.573311084e-43
15.50357806 5.762791222 -5.027042944 3.573311084e-43
16.28427707 -1.042024049 3.517214122 3.573311084e-43
21.29706635 -3.335349269 -4.478839462 3.573311084e-43
24.40095725 -1.133402275 4.255529392 3.573311084e-43
18.24417114 -6.092328045 -0.2323323636 3.573311084e-43
20.08255517 0.02197813793 -3.419118931 3.573311084e-43
16.77524 3.443394 -1.599877667 3.573311084e-43
25.20754085 -1.223410434 3.836680509 3.573311084e-43
21.26056862 2.586021586 -1.951848414 3.573311084e-43
22.17636371 -0.2697032857 4.676866571 3.573311084e-43
15.59224947 -5.539611263 -0.2018294211 3.573311084e-43
23.11559094 -0.3814978868 4.599355038 3.573311084e-43
27.7159 -4.854146 1.435839 3.573311084e-43
18.31949235 3.190423412 -1.288378353 3.573311084e-43
18.23608984 -6.04511473 2.957802333 3.573311084e-43
19.19541357 1.544196381 -2.746593619 3.573311084e-43
17.17625971 -0.2015964286 3.549992286 3.573311084e-43
19.24046383 -0.23712 3.508767167 3.573311084e-43
15.67083 8.269694 -6.596361 3.573311084e-43
28.74086324 -3.157781882 0.6249087059 3.573311084e-43
23.847879 -0.558289 4.487362 3.573311084e-43
18.796496 -0.016108 3.378041 3.573311084e-43
23.28481833 0.09977266667 4.259972333 3.573311084e-43
13.74517083 4.1478565 1.962818583 3.573311084e-43
23.25106171 -2.266082 -4.265416571 3.573311084e-43
21.09403286 0.1227347143 4.200554 3.573311084e-43
17.16940385 0.7994476923 3.250629 3.573311084e-43
17.266396 0.383616 3.433277 3.573311084e-43
17.8263 0.3572206667 3.445069 3.573311084e-43
14.36642833 -1.241186 1.927317929 3.573311084e-43
25.3123645 -4.267155 3.107935667 3.573311084e-43
18.19258612 0.7866048955 3.221651687 3.573311084e-43
26.01829278 -5.853144056 0.8322273333 3.573311084e-43
16.26650328 -1.264735104 -2.762012493 3.573311084e-43
15.85897222 4.537044 3.569175111 3.573311084e-43
21.22097883 1.641619 -2.824505 3.573311084e-43
13.63464 5.344894 1.536164 3.573311084e-43
22.25140382 1.665369 -2.897163941 3.573311084e-43
25.06191771 0.6127860833 -2.799674542 3.573311084e-43
20.19300531 -6.01665975 3.9643915 3.573311084e-43
21.20197242 -5.963383576 3.963514303 3.573311084e-43
15.18328607 -1.211341714 -2.197298143 3.573311084e-43
17.24817714 -1.260438 -2.987842714 3.573311084e-43
15.08102064 -2.347434511 -1.164462064 3.573311084e-43
17.0265352 -4.9016488 1.7528698 3.573311084e-43
22.18644167 -5.988003619 3.752686857 3.573311084e-43
16.58095667 2.725339833 3.290408167 3.573311084e-43
18.06799406 5.122347125 -0.9057138125 3.573311084e-43
28.61150255 -3.263944727 1.101104636 3.573311084e-43
24.20337175 -5.984075474 2.95263514 3.573311084e-43
24.85022455 -5.796353273 2.682990818 3.573311084e-43
18.07584536 -5.887898857 3.565963643 3.573311084e-43
15.81306833 -2.670964333 2.287825667 3.573311084e-43
20.237828 -5.847821 4.4784755 3.573311084e-43
24.59560467 -5.086661333 3.352524333 3.573311084e-43
23.1988063 -5.960277481 3.601226037 3.573311084e-43
23.31029962 -5.939003358 -2.210215528 3.573311084e-43
26.16951632 -0.2489949655 2.941115897 3.573311084e-43
25.44465241 -5.478629103 2.124780724 3.573311084e-43
15.318027 2.795802 -1.7045902 3.573311084e-43
20.94774654 7.576967077 -2.453932923 3.573311084e-43
20.17809848 7.772588565 -2.055892087 3.573311084e-43
19.66109 7.447627333 -2.598384333 3.573311084e-43
19.52608349 -1.222715302 -3.917648209 3.573311084e-43
27.91631296 -4.878128593 0.8434456667 3.573311084e-43
25.57134125 0.083699 3.351039 3.573311084e-43
25.75232 -4.758856 2.471429 3.573311084e-43
28.00880816 -4.172201306 1.727707367 3.573311084e-43
15.98227317 6.014786683 -5.95252539 3.573311084e-43
28.41125879 -4.238091758 0.9167059697 3.573311084e-43
28.2403539 -2.373280878 0.9064885122 3.573311084e-43
21.23140955 -2.220653761 -4.729126224 3.573311084e-43
16.76389769 4.790770923 2.518611308 3.573311084e-43
25.96762341 -4.069855091 2.7202365 3.573311084e-43
18.48934421 7.484599263 -1.783948368 3.573311084e-43
15.36754133 8.456814 -6.080340778 3.573311084e-43
25.08611286 -3.186255048 3.661585825 3.573311084e-43
20.29558463 -5.705406732 -0.1394183171 3.573311084e-43
25.58883864 -3.214281 3.324412182 3.573311084e-43
26.17526363 -3.17998125 2.8843055 3.573311084e-43
25.57207 -2.493258308 3.330124385 3.573311084e-43
24.15243791 2.57441191 -1.954628313 3.573311084e-43
23.99119472 -1.331301556 4.499677333 3.573311084e-43
17.21298593 -1.972868963 -2.727278407 3.573311084e-43
25.78764667 -1.566432667 3.434459 3.573311084e-43
16.02738467 7.625790667 -5.114132333 3.573311084e-43
25.75833333 1.398194 2.467865667 3.573311084e-43
13.66055 5.358194 0.322129 3.573311084e-43
27.9107316 -4.8690408 -0.0729854 3.573311084e-43
23.22048629 1.726214 -2.820897714 3.573311084e-43
15.49651087 5.128463565 -3.096238391 3.573311084e-43
20.13148944 2.046702333 -2.395481833 3.573311084e-43
14.0844641 4.801127735 2.921540325 3.573311084e-43
20.650265 -2.812276 -4.626956 3.573311084e-43
24.23899593 -6.00694922 -2.076007271 3.573311084e-43
15.5849225 5.237244 -3.8286735 3.573311084e-43
23.97902704 -5.922293778 -2.929755074 3.573311084e-43
25.32513029 -5.423601882 -1.376008059 3.573311084e-43
25.06850821 -5.18051475 -2.067122964 3.573311084e-43
24.64214556 -5.639539333 -2.320105444 3.573311084e-43
25.84908059 1.490911647 -1.763595706 3.573311084e-43
19.21212263 -6.033134421 -3.847696789 3.573311084e-43
22.16407263 2.155815053 -2.490499421 3.573311084e-43
28.08207147 -3.230294235 -0.9518448235 3.573311084e-43
27.18429081 -4.192426541 -1.443045595 3.573311084e-43
25.61165667 -4.470164333 -2.306631417 3.573311084e-43
19.669575 -2.846881 -3.666241 3.573311084e-43
22.15609639 -6.015357667 -3.102378917 3.573311084e-43
27.078484 -2.241081 -1.07129625 3.573311084e-43
21.18334036 2.137511857 -2.458315286 3.573311084e-43
25.24242573 -1.205058317 -3.25836661 3.573311084e-43
28.7461404 -3.2658648 0.1764178 3.573311084e-43
14.743 -1.594266 -1.551631 3.573311084e-43
22.20299889 0.2966128889 -3.695113222 3.573311084e-43
28.60702096 -3.198721577 -0.2530450385 3.573311084e-43
20.19326254 -5.207923778 -3.753349571 3.573311084e-43
17.74718286 4.383065429 0.6019647143 3.573311084e-43
22.13934947 -4.927088632 -3.779511 3.573311084e-43
17.668035 4.174469 1.258454 3.573311084e-43
17.237937 0.7489007143 -2.883689429 3.573311084e-43
14.01288243 -1.191987286 -0.09567714286 3.573311084e-43
26.38891257 -4.271451429 -1.535754429 3.573311084e-43
24.02752343 -0.409826 -3.769077571 3.573311084e-43
13.63825783 3.675304 2.7981815 3.573311084e-43
24.71077 -3.867632667 -3.608174333 3.573311084e-43
26.30848926 -3.238403353 -2.134965559 3.573311084e-43
25.87095545 -3.164073273 -2.712981 3.573311084e-43
18.247714 1.5008765 -2.7257065 3.573311084e-43
25.74458 -5.746756 1.480319 3.573311084e-43
21.14621873 3.056894 -1.176305 3.573311084e-43
14.90962375 -2.53690325 0.97009525 3.573311084e-43
25.90417429 -0.4218579048 -2.717394333 3.573311084e-43
19.79501 -5.74268 1.670959 3.573311084e-43
14.97647359 4.729117077 -1.409592795 3.573311084e-43
13.67264 5.176527333 0.2880423333 3.573311084e-43
24.0115831 1.549242276 -2.701722034 3.573311084e-43
16.15330273 -6.12005903 -0.03756660606 3.573311084e-43
17.70347 4.181694 -0.552301 3.573311084e-43
21.71116 7.139994 -2.871001 3.573311084e-43
20.20009588 -5.911089529 -3.779917765 3.573311084e-43
15.90825 5.241448545 -3.808678273 3.573311084e-43
17.340015 3.124449556 -1.484082111 3.573311084e-43
16.2896619 -5.97335346 2.926793444 3.573311084e-43
15.55495 -2.834887875 1.644685875 3.573311084e-43
26.76867083 -2.262539333 -1.714622667 3.573311084e-43
25.86629583 -2.176400167 -2.805726417 3.573311084e-43
18.83772333 -6.145269333 -0.712241 3.573311084e-43
19.25385911 -5.360456536 -3.78068975 3.573311084e-43
25.30190169 -2.171389846 -3.293856231 3.573311084e-43
27.38669803 -2.088852818 -0.1541729697 3.573311084e-43
18.2286714 2.017547488 -2.455126581 3.573311084e-43
13.71537 4.259594 0.425029 3.573311084e-43
25.72108 2.277594 -0.798961 3.573311084e-43
25.78588733 2.352814 -0.032241 3.573311084e-43
24.27961043 3.039528783 -1.159563754 3.573311084e-43
23.95194824 3.351652824 -0.8073068824 3.573311084e-43
24.57670318 3.207462182 -0.1279169091 3.573311084e-43
14.17224489 -0.2177748298 1.940875064 3.573311084e-43
15.75323667 7.323794 -3.447121 3.573311084e-43
22.23718511 3.392194 -0.9416538889 3.573311084e-43
21.5927825 3.329969 1.519519 3.573311084e-43
15.63 8.496127333 -6.606877667 3.573311084e-43
15.531117 -5.976669333 -0.1753613333 3.573311084e-43
18.16895718 -4.189833606 -1.95497269 3.573311084e-43
16.35266268 -5.23810093 2.909536465 3.573311084e-43
19.86354523 -4.177697364 -3.284380773 3.573311084e-43
19.08710319 -6.04973217 3.034058362 3.573311084e-43
15.54012773 -5.983736909 -0.8520146364 3.573311084e-43
19.31700924 -5.299258911 3.862213557 3.573311084e-43
19.21707203 -6.106498712 -3.072802525 3.573311084e-43
16.10675597 -5.174577045 -0.02089995522 3.573311084e-43
15.60377 -5.572407818 -0.8009628182 3.573311084e-43
13.60679792 2.714564833 3.553910667 3.573311084e-43
14.61526071 -0.2560688571 2.503514714 3.573311084e-43
16.50285333 -2.804410167 2.5488915 3.573311084e-43
19.590955 -4.651756 3.474494 3.573311084e-43
13.66626667 2.130310667 3.505874 3.573311084e-43
17.294332 1.484047333 -2.688872333 3.573311084e-43
21.11273444 -0.6231226667 -4.657748222 3.573311084e-43
18.37963222 -5.348241185 -2.982154333 3.573311084e-43
20.751835 -2.690591 4.376519 3.573311084e-43
18.14312109 -6.070945687 -2.133370062 3.573311084e-43
21.2225421 -6.016162543 -3.064442728 3.573311084e-43
18.55727833 -5.957331833 -3.683136 3.573311084e-43
16.18468211 -5.240684732 -1.135862268 3.573311084e-43
18.11382375 -5.15046875 -2.153438125 3.573311084e-43
14.58585625 5.465269 -0.76314225 3.573311084e-43
21.66986 -2.626586 -4.544974333 3.573311084e-43
16.9971155 -4.896932 -1.390323 3.573311084e-43
17.07893937 -4.228511443 -1.091562519 3.573311084e-43
19.31172846 -5.582343949 -2.098979205 3.573311084e-43
19.55753636 -4.323902667 -2.815461 3.573311084e-43
20.33843293 -4.144542585 -3.820780024 3.573311084e-43
17.27399265 -3.114272327 -1.89769202 3.573311084e-43
16.94398562 -3.483940688 -1.184794125 3.573311084e-43
16.78396857 -3.679608857 -0.2284438571 3.573311084e-43
19.55553547 -3.161671849 -3.010067792 3.573311084e-43
20.8357075 0.2168265 -3.468441 3.573311084e-43
19.14735702 -3.311883368 -2.286545737 3.573311084e-43
20.21221743 -3.222538703 -4.120113973 3.573311084e-43
19.77381071 -3.433033857 -3.393551714 3.573311084e-43
16.17970034 -3.219995831 -1.082770322 3.573311084e-43
23.46043071 0.2033047143 -3.435442429 3.573311084e-43
20.08243833 -5.729281 0.2510523333 3.573311084e-43
15.48168412 -2.924676588 -0.8061262941 3.573311084e-43
22.91254 -5.642966 -1.270032667 3.573311084e-43
16.04634667 5.100209152 -3.025221909 3.573311084e-43
15.77725 -2.672819333 -1.492364333 3.573311084e-43
14.45575944 -2.064074148 -0.07080822222 3.573311084e-43
14.55906727 -1.913116909 -0.9347837273 3.573311084e-43
19.23641521 -2.251001616 -3.038694014 3.573311084e-43
17.24921784 -6.058825608 -1.938600804 3.573311084e-43
19.96060024 -2.311326 -4.358890512 3.573311084e-43
19.53767789 -2.083068632 -3.897097316 3.573311084e-43
14.32476603 -1.210799088 -1.084328941 3.573311084e-43
21.45438 -6.029951 3.379199 3.573311084e-43
19.1348727 -1.258587746 -3.237155603 3.573311084e-43
14.64623 -1.014220286 -1.693791 3.573311084e-43
22.770535 -5.702341 1.378119 3.573311084e-43
16.37866267 -6.001200333 -1.718864667 3.573311084e-43
23.29544364 2.194930364 -2.554600091 3.573311084e-43
20.052475 -5.225382429 -3.067619571 3.573311084e-43
21.25325139 -1.237239611 -4.762072667 3.573311084e-43
18.16316192 -2.527036 -2.491838308 3.573311084e-43
16.48775333 -5.5561485 -1.671342667 3.573311084e-43
22.05009957 -1.238257064 -4.653360574 3.573311084e-43
20.87121167 -5.836241 -3.644880167 3.573311084e-43
25.69922 0.173924 -2.559431 3.573311084e-43
17.23652508 -5.350951738 -1.829983951 3.573311084e-43
20.26367706 -5.688403451 1.958885275 3.573311084e-43
20.5611 -0.67767 -4.609097 3.573311084e-43
22.18298273 3.190989455 -1.423766 3.573311084e-43
23.20885 3.187332462 -1.416821 3.573311084e-43
23.18781407 -5.295540074 -3.358221556 3.573311084e-43
22.17672951 -5.384137707 -3.461163195 3.573311084e-43
21.4656 -5.387391 -3.538781625 3.573311084e-43
23.14685222 -4.818964889 -3.670982111 3.573311084e-43
23.71269 -4.725756 -3.601021 3.573311084e-43
23.14478179 -4.254768687 -3.902183836 3.573311084e-43
22.16023614 -4.262050857 -4.079678571 3.573311084e-43
24.09612447 -4.131429404 -3.732445681 3.573311084e-43
24.19688029 -3.278169382 -3.802955412 3.573311084e-43
22.23444377 -3.245265855 -4.357125783 3.573311084e-43
24.76917625 -2.89295975 -3.653896 3.573311084e-43
21.09703706 -2.923426 -4.646256294 3.573311084e-43
24.25210608 -2.223065865 -3.873228162 3.573311084e-43
22.34095208 -2.334029585 -4.464770434 3.573311084e-43
18.975201 -2.624008 -2.51242 3.573311084e-43
18.329055 -2.101381238 -2.690860762 3.573311084e-43
16.14404735 -2.284491306 -2.264574061 3.573311084e-43
16.47328786 -1.947976 -2.656041714 3.573311084e-43
23.25856111 -1.264355444 -4.255841417 3.573311084e-43
22.54256269 -1.252677538 -4.517997154 3.573311084e-43
20.39504396 -1.289569333 -4.709424125 3.573311084e-43
18.24860114 -1.257502714 -2.966099857 3.573311084e-43
15.79906 -1.584766 -2.552931 3.573311084e-43
20.20858552 -6.039946 -3.040036672 3.573311084e-43
22.230036 -5.8664732 -2.4859894 3.573311084e-43
21.45831833 -5.754721 -2.548051 3.573311084e-43
18.95047529 -5.925342471 -2.288969235 3.573311084e-43
21.18396981 -5.643090423 -2.084835038 3.573311084e-43
26.47649789 -5.639606 1.043554789 3.573311084e-43
23.30465816 -6.007269158 -0.9975325789 3.573311084e-43
25.938732 -5.799644 -0.678567 3.573311084e-43
21.21452451 -5.664773255 -1.081550216 3.573311084e-43
26.12377074 -5.883966 -0.016261 3.573311084e-43
18.16183863 -6.154961098 -1.069307078 3.573311084e-43
17.19228208 -6.174956755 -1.075045717 3.573311084e-43
19.39375233 -5.687998667 -1.215347333 3.573311084e-43
22.07661579 -5.671981526 -0.1130654737 3.573311084e-43
24.18696471 -6.047607765 1.262853706 3.573311084e-43
25.22411091 -5.986618364 0.932011 3.573311084e-43
21.21062962 -5.686449269 -0.09031907692 3.573311084e-43
19.07527535 -6.111915302 0.02655225581 3.573311084e-43
23.10739545 -6.039772364 0.9792860909 3.573311084e-43
17.1893783 -6.160624679 -0.09416477358 3.573311084e-43
19.62815 -5.708636 -0.524061 3.573311084e-43
22.570245 -5.850421 0.782069 3.573311084e-43
14.7928 -1.641906 2.332592333 3.573311084e-43
19.30830902 -6.081048683 0.9096099756 3.573311084e-43
20.01469429 -5.764478381 0.9739475714 3.573311084e-43
22.2163175 -5.640782429 1.916055964 3.573311084e-43
20.4251936 -5.715008 0.9608466 3.573311084e-43
17.06744825 -6.156305 0.9500625 3.573311084e-43
18.20025341 -6.098090634 2.068894122 3.573311084e-43
16.20025155 -3.505965138 -0.08081427586 3.573311084e-43
22.144706 -5.5934136 2.6390158 3.573311084e-43
19.63150333 -5.706066 2.298879 3.573311084e-43
21.17419846 -5.606629333 2.753373359 3.573311084e-43
22.26715267 -6.039862667 3.257847667 3.573311084e-43
17.20315345 -6.073017897 2.90482469 3.573311084e-43
